ply
format ascii 1.0
comment VCGLIB generated
element vertex 602
property float x
property float y
property float z
element face 0
property list uchar int vertex_indices
end_header
0.15144 0.02035 0.02552 
0.07031 -0.10647 0.02454 
0.08901 0.25791 0.0828 
0.09515 0.22895 0.04316 
-0.02952 -0.10647 0.04018 
0.02981 -0.05557 0.1158 
-0.13482 0.03657 0.04272 
-0.15211 0.18271 0.02318 
-0.11388 -0.29159 -0.10943 
0.03246 0.42893 0.00899 
0.1231 -0.11894 0.04018 
0.15115 0.21917 -0.06555 
0.1114 -0.09156 0.03813 
-0.03246 0.43805 -0.01789 
0.14975 0.30306 -0.05681 
0.09976 -0.07369 -0.04892 
0.1269 0.04878 -0.00068 
0.15729 0.18261 -0.00183 
0.10808 0.43202 -0.0107 
-0.12121 -0.41209 -0.019 
0.15128 0.37851 -0.0526 
-0.10559 0.42357 -0.01722 
-0.15669 -0.18054 0.00145 
-0.02114 -0.41705 0.02175 
0.06348 -0.32866 0.03735 
0.14169 -0.43213 -0.0526 
0.14362 -0.14784 0.03875 
0 0.39834 0.0452 
-0.15168 0.18948 -0.08737 
0.15115 -0.29388 -0.06555 
-0.13183 -0.32251 -0.01774 
0.04283 0.43805 -0.01789 
0.12916 -0.40856 -0.01873 
-0.14951 0.26189 -0.01372 
-0.01853 0.23164 0.10719 
-0.14493 0.37649 0.03525 
-0.14187 0.16404 -0.07167 
0.13685 -0.41459 -0.07305 
0.09501 0.21427 0.08162 
-0.13558 0.17775 0.04333 
0.12262 -0.43894 -0.02727 
-0.0748 0.21839 0.08366 
-0.02566 -0.09999 0.01187 
-0.13183 -0.23499 -0.10526 
0.07471 0.21335 -0.00068 
0.05956 0.03123 -0.06412 
0.15115 0.27984 -0.0615 
0.00531 -0.05154 -0.03332 
0.09759 -0.11755 0.04397 
-0.08908 0.06437 0.04316 
-0.08627 -0.41477 0.00333 
0.13207 0.27806 -0.10526 
0.15171 0.18068 0.02599 
-0.14135 -0.40715 0.00579 
-0.11347 0.44549 -0.05527 
0 -0.19248 0.04639 
-0.04324 -0.42919 0.00516 
-0.11205 0.31495 -0.07297 
0.13207 -0.23499 -0.01774 
0.14251 0.26435 -0.00947 
-0.14844 0.43833 -0.0389 
0.06078 -0.39689 -0.07429 
0.08437 -0.44576 -0.02727 
0.1138 -0.27875 -0.01595 
-0.10889 0.09088 -0.04563 
-0.0064 -0.42996 0.0043 
0.08571 0.14802 -0.04892 
0.11205 -0.2074 -0.07479 
0.15323 -0.35069 0.01598 
0.15719 0.21431 -0.00127 
0.15073 0.14327 -0.05681 
-0.04378 0.11586 -0.0638 
-0.08581 0.14802 -0.04892 
0.11874 0.18684 0.07814 
0.15417 -0.20794 -0.05681 
0.0005 -0.10763 0.04522 
0.09916 0.09088 -0.0483 
-0.15864 -0.23985 -0.00924 
0.04314 -0.11733 0.08241 
0.11205 0.30304 -0.05515 
0.1578 0.02882 -0.00465 
0.15405 0.37653 -0.01592 
0.05658 0.15639 -0.04987 
-0.01693 -0.045 -0.03332 
-0.02775 -0.41705 -0.02959 
0.02822 -0.10647 0.04018 
-0.04898 0.04554 0.04316 
0.07771 -0.17776 0.04018 
-0.05885 -0.17386 0.04568 
0.04669 0.04878 -0.00068 
-0.11334 -0.31095 -0.0293 
-0.05449 0.21427 0.06169 
-0.12955 -0.42273 -0.07303 
0.11402 0.38911 0.04205 
0.15195 -0.24367 -0.02642 
-0.11388 -0.29159 -0.01358 
0 -0.45586 -0.04217 
0.06275 0.02104 -0.03069 
-0.05259 -0.0478 -0.06584 
0 -0.01761 0.12096 
-0.08908 0.0262 -0.06412 
0.09818 -0.10661 0.02306 
0 -0.05557 0.1158 
0.04061 0.22895 0.04316 
-0.15114 0.18876 -0.0615 
-0.04898 0.04878 -0.00068 
-0.00176 -0.41705 -0.03069 
0 0.26117 0.08386 
0.14135 -0.40715 0.00579 
0.02266 -0.18289 0.04018 
0.13207 0.28789 -0.03056 
-0.13183 -0.27875 -0.12339 
-0.13183 0.28789 -0.09245 
0.13207 -0.27875 -0.12339 
-0.15388 -0.17905 -0.05681 
-0.14362 -0.14784 0.03875 
0.14926 0.242 -0.01993 
-0.15918 -0.19915 -0.0162 
-0.10889 0.21011 0.04316 
-0.08908 0.04878 -0.00068 
0.0868 0.06437 0.04316 
0.07234 -0.01692 0.11918 
-0.11334 0.27105 -0.04028 
-0.06519 0.06241 0.08162 
0.05989 0.29008 0.05182 
0.13207 -0.21897 -0.04548 
0.03002 -0.32956 0.03818 
0.13297 -0.07106 0.04362 
0.02822 0.03133 -0.05489 
-0.02952 -0.11807 -0.03332 
0.03654 -0.4555 -0.05328 
0.11416 -0.2578 0.00055 
0.02822 -0.08088 -0.02962 
0.15195 -0.23082 -0.04866 
0.12329 0.00423 -0.06995 
-0.0159 0.22377 0.04316 
0 0.04879 0.12265 
0.07471 0.19988 -0.06412 
-0.02396 -0.18289 0.04018 
0.0548 -0.06432 0.11177 
0.13207 0.20336 -0.11509 
0.04669 0.04554 0.04316 
-0.05989 0.29008 0.05182 
0.14251 -0.2632 -0.00346 
-0.14169 -0.10836 0.01652 
0 0.4334 -0.06691 
0.10292 0.10604 -0.07199 
0.1049 0.28314 0.05359 
0.15043 0.15797 0.0294 
-0.14878 -0.40017 -0.0233 
-0.11213 -0.09205 0.08116 
0.13132 -0.39531 0.0243 
0.14953 -0.31776 -0.10052 
0.15195 -0.32837 -0.0615 
-0.1126 -0.20797 -0.05516 
-0.06379 0.09088 -0.04892 
-0.15901 0.13957 -0.01929 
0.12 -0.0478 -0.06584 
-0.11388 0.28392 -0.0615 
0.1138 0.26432 -0.03149 
-0.12558 0.00422 -0.06995 
0.1072 0.04929 -0.0151 
-0.1027 0.16444 0.10189 
-0.051 0.43363 0.00963 
0 0.43363 0.00963 
-0.04895 0.22989 0.10694 
0.0536 0.00792 -0.07199 
0.15168 -0.25288 -0.10632 
-0.14456 0.34004 0.03961 
0.13474 0.02018 0.04265 
-0.14978 -0.37453 -0.0526 
0.02822 -0.12154 -0.05489 
-0.06504 0.06437 0.04316 
0.14926 -0.28644 -0.01993 
0.13558 0.17775 0.04333 
0.13207 0.17242 -0.0615 
-0.13092 -0.44055 -0.05378 
0.15388 -0.17905 -0.05681 
-0.06504 0.01516 -0.04563 
-0.02445 -0.45717 -0.0573 
-0.14441 0.28804 0.03992 
-0.14206 0.30347 -0.07113 
-0.1424 -0.2943 -0.00346 
0.1138 0.2343 -0.01907 
0.02445 -0.45681 -0.03286 
0.15115 0.26104 -0.04098 
-0.11388 -0.23082 -0.07435 
0.08482 0.13485 0.11977 
-0.06078 -0.39689 -0.07429 
0.08627 -0.41477 0.00333 
-0.11298 0.0497 0.06169 
-0.10677 -0.43291 -0.05328 
0.06005 -0.08844 0.00749 
0.06229 0.22045 0.11096 
0.02114 -0.42879 0.01217 
-0.10582 0.16879 -0.06995 
0.11434 -0.29159 -0.10943 
-0.13183 0.19054 -0.10526 
-0.10621 0.28289 0.05346 
0.1404 -0.10712 0.02868 
-0.13311 0.41962 -0.01669 
-0.15114 -0.27875 -0.04584 
-0.05109 -0.4555 -0.05328 
-0.13183 0.1807 -0.03056 
0.15168 0.18948 -0.08737 
0.11577 -0.32268 0.03286 
-0.06519 0.0497 0.06169 
-0.13183 0.2343 -0.12339 
-0.15128 0.37851 -0.0526 
-0.15417 -0.20794 -0.05681 
0.11013 0.24641 0.08116 
0.1138 -0.32118 -0.0615 
-0.11334 -0.31095 -0.09371 
0.1138 0.19187 -0.0615 
0.0741 -0.04996 0.11578 
-0.11497 0.22002 -0.1148 
0.12248 0.4221 0.02215 
0.14441 0.28804 0.03992 
0.06078 0.32136 -0.07356 
-0.11388 -0.2659 -0.01358 
-0.1424 -0.33679 -0.04595 
0.15246 -0.37453 -0.04039 
0.13207 -0.29477 -0.00173 
-0.09612 0.20498 0.10813 
-0.02981 -0.05557 0.1158 
0.0745 -0.11627 0.0482 
-0.14951 0.20672 -0.10929 
0.06515 0.05083 0.08366 
0.14065 0.41644 -0.01634 
0.05386 -0.10317 0.05273 
-0.14895 0.39574 0.01141 
-0.15114 0.22021 -0.0859 
-0.11388 -0.2659 -0.10943 
-0.12708 -0.3193 0.03241 
0.15918 -0.19915 -0.0162 
-0.07613 -0.01654 -0.04892 
0.11085 0.02104 -0.03069 
-0.11013 0.24641 0.08116 
0.15319 0.36938 0.02072 
-0.15114 0.26651 -0.09371 
0.15115 -0.24197 -0.0848 
0.07234 0.04818 0.12087 
-0.11394 -0.23987 -0.00747 
0.09612 0.20498 0.10813 
-0.15547 -0.33256 -0.02619 
-0.02952 0.03133 -0.03332 
0.1369 0.39434 0.03638 
0.14926 0.26646 -0.08895 
0.0545 -0.45032 -0.03043 
0.02026 0.21427 0.05074 
0.10102 -0.0512 0.10257 
0.1138 0.26651 -0.09371 
-0.05184 0.13737 0.12222 
0.1417 0.41667 0.01012 
0.13207 -0.21897 -0.07751 
-0.05668 0.15639 -0.04987 
0.14209 -0.37031 0.00348 
0.05152 -0.18326 0.04018 
0.05439 0.21427 0.06169 
-0.15729 0.18261 -0.00183 
-0.04071 0.22895 0.04316 
-0.07233 -0.01692 0.11918 
0.02417 0.09088 -0.06368 
0.0536 -0.04784 -0.06585 
-0.1424 0.2343 -0.00142 
0.04649 0.10541 -0.07199 
-0.12821 0.3047 0.04538 
0.02158 -0.02057 -0.03332 
-0.07233 0.04818 0.12087 
0.1138 0.27674 -0.0615 
-0.10203 -0.07369 -0.04892 
-0.12763 0.27413 0.04769 
-0.15681 -0.31462 -0.00924 
0.14977 0.39511 0.00374 
-0.05436 0.18561 -0.03069 
-0.13238 -0.12509 0.04233 
-0.1156 0.02918 0.08116 
-0.09524 0.17973 -0.04563 
0.15192 0.02882 -0.05681 
0.13207 -0.23499 -0.10526 
-0.09291 0.09088 -0.06368 
0.0969 0.0292 0.11011 
0.11479 0.02033 0.0812 
0 -0.11733 0.08241 
-0.08482 0.13485 0.11977 
0.15901 0.13957 -0.01929 
0.04322 0.26117 0.08386 
0.00066 -0.02993 -0.00784 
0.1269 0.04554 0.04316 
-0.02534 -0.07256 -0.03272 
-0.15114 -0.26696 -0.01751 
-0.07636 -0.41979 -0.01898 
0.06583 0.43363 0.00963 
0.0202 0.15297 -0.04636 
0.0868 0.0262 -0.06412 
0.1138 -0.24654 -0.0293 
-0.09699 0.02259 0.1099 
-0.15114 -0.24654 -0.09371 
0.0356 0.23933 0.1029 
0.14865 -0.17615 0.02956 
-0.04071 0.09088 -0.06368 
-0.08437 -0.44576 -0.02727 
0 0.13844 0.12339 
-0.11334 0.19486 -0.03872 
-0.02445 0.43112 0.00753 
0.086 0.22587 0.10505 
0.14926 -0.00751 0.03043 
-0.11334 -0.32274 -0.04971 
0.13207 -0.33235 -0.09245 
0.15115 0.18876 -0.0615 
0.14828 -0.27527 0.02903 
-0.12919 0.0262 -0.06412 
-0.12262 -0.43894 -0.02727 
-0.06777 -0.07369 -0.06368 
-0.15114 -0.23321 -0.0615 
0.14415 -0.34687 -0.07327 
0.06275 0.06437 0.04316 
-0.1424 -0.33679 -0.07705 
-0.11334 0.2021 -0.09371 
-0.15195 0.19134 -0.03669 
0 -0.43606 -0.07226 
-0.11334 -0.24875 -0.03149 
-0.06297 0.32013 0.05001 
-0.13963 0.42883 -0.06116 
-0.0977 -0.02497 0.10851 
-0.12126 -0.22671 -0.03146 
-0.15114 0.21864 -0.0615 
-0.15933 -0.01453 -0.01901 
0.01882 -0.09523 -0.00892 
0.11541 -0.30633 -0.01372 
-0.15114 -0.31095 -0.09371 
0.14359 -0.37448 -0.07351 
0.13864 -0.31268 0.03189 
0.10845 0.05083 0.08366 
-0.02801 -0.01761 0.12096 
0.14251 -0.33078 -0.03146 
-0.14951 -0.29303 -0.1148 
0.11205 0.27113 -0.00744 
0.15168 0.22091 -0.11149 
0.12279 0.44786 -0.02119 
-0.14109 -0.38703 0.02326 
-0.12919 -0.07369 -0.04563 
0 -0.33034 0.03917 
0.11358 -0.32966 -0.02014 
0.0563 0.22474 0.08366 
0.13573 0.20522 0.04345 
0.10396 -0.14635 0.04018 
-0.15195 0.28223 -0.07435 
-0.12673 0.0196 0.05752 
0.15115 -0.25057 -0.0615 
0.09044 -0.1147 0.08129 
0.15115 -0.27875 -0.08968 
-0.02288 -0.02057 -0.03332 
-0.0748 0.22895 0.04316 
-0.07908 0.43538 -0.0107 
-0.0653 0.41706 0.04035 
-0.14488 -0.4298 -0.03339 
0.06548 -0.00819 -0.04987 
-0.1104 -0.00819 -0.04987 
0.13207 0.25032 -0.12128 
-0.0545 -0.45032 -0.03043 
-0.12006 -0.39945 0.02429 
0 0.32592 0.0498 
-0.15529 0.29709 -0.03812 
-0.14923 -0.31521 -0.0663 
0.15195 -0.29159 -0.10943 
-0.14923 -0.29282 -0.02752 
-0.06861 -0.43291 -0.05328 
0.13207 -0.30969 -0.11509 
0.10292 0.17249 -0.07199 
-0.0864 0.2149 -0.0151 
-0.12272 0.44485 -0.01826 
0.05155 0.1958 -0.06412 
0.13788 -0.38694 -0.01542 
0.15933 -0.01453 -0.01901 
0.10662 -0.09218 0.00711 
0.02776 -0.41705 -0.02959 
-0.10949 0.04929 -0.0151 
0.12163 0.24986 -0.00346 
0.0314 0.21167 0.11555 
-0.09697 -0.07054 0.10276 
0.0653 0.41706 0.04035 
0.10088 0.12496 0.10458 
-0.02445 -0.45717 -0.03286 
-0.08097 -0.17776 0.04018 
0.04669 -0.07369 -0.06368 
-0.15192 0.02882 -0.05681 
-0.14993 0.15602 0.03137 
-0.1578 0.02882 -0.00465 
0.15115 -0.3055 -0.04098 
0 0.32136 -0.07356 
0.1138 -0.26696 -0.10549 
0.04845 0.17822 -0.04563 
-0.11388 0.2343 -0.01188 
0.02026 0.22698 0.07067 
-0.11313 0.02104 -0.03069 
-0.02036 0.22698 0.07067 
-0.14951 0.24859 -0.1148 
0.02436 -0.10081 0.0154 
0.11186 -0.09523 0.08116 
-0.14828 -0.27527 0.02903 
0.05184 0.13737 0.12222 
-0.05165 0.1958 -0.06412 
0.06369 0.09088 -0.04892 
0.09949 -0.10038 0.0613 
0.02801 -0.01761 0.12096 
-0.15163 -0.34136 0.02072 
-0.13183 0.20336 -0.0079 
-0.12229 -0.05434 -0.06995 
-0.11205 0.27113 -0.00744 
-0.1566 0.28334 -0.01946 
-0.01606 -0.43291 -0.05328 
-0.14951 -0.26447 -0.1148 
-0.01377 -0.4366 -0.02579 
0.15831 -0.05789 -0.01692 
-0.11334 -0.24654 -0.09371 
-0.14209 -0.37031 0.00348 
0.06298 -0.43606 -0.07226 
0.02403 -0.10689 -0.03136 
0.13207 0.21828 -0.00173 
0.11423 -0.42715 -0.07291 
-0.11947 0.17413 0.07645 
0 0.29008 0.05182 
0.15681 -0.31462 -0.00924 
0.04669 0.0106 -0.04563 
0.09772 0.21238 -0.0151 
0.10879 0.21011 0.04316 
-0.10088 0.12496 0.10458 
-0.02427 0.09088 -0.04709 
-0.10582 0.11586 -0.0638 
0.1181 -0.44513 -0.05328 
0.06655 0.45717 -0.03933 
0.09515 0.18561 -0.03069 
0.11205 0.17043 -0.03644 
-0.02427 0.17846 -0.04563 
-0.02029 0.15297 -0.04636 
-0.04898 0.0262 -0.06412 
0 -0.39689 -0.07429 
-0.06868 0.04929 -0.0151 
-0.12821 0.35684 0.04314 
0.11205 -0.39351 -0.07479 
0.12163 -0.33679 -0.04595 
0.09371 0.09083 0.11615 
0.02417 0.17846 -0.04563 
-0.09371 0.09083 0.11615 
-0.10041 -0.1134 0.08074 
0.0868 0.04878 -0.00068 
-0.13434 -0.0715 0.04233 
-0.0741 -0.04996 0.11578 
0.10597 -0.16948 0.04568 
0.02801 0.04879 0.12265 
0.13207 0.29408 -0.07751 
-0.08908 0.05299 0.08162 
-0.02952 -0.09148 -0.0194 
0.06542 -0.40459 0.02935 
0.1027 0.16444 0.10189 
-0.00065 -0.10081 0.0154 
-0.13573 0.20522 0.04345 
-0.14865 -0.17615 0.02956 
-0.11742 0.20567 0.08116 
-0.10597 -0.16948 0.04568 
-0.11749 0.42668 0.00968 
0.14926 0.22023 -0.02752 
-0.14926 -0.00751 0.03043 
-0.14923 0.21611 -0.02333 
-0.15114 0.27679 -0.05196 
0.14895 0.4376 -0.02036 
0 0.21167 0.11555 
-0.08901 0.25791 0.0828 
0.06639 0.04929 -0.0151 
-0.13317 -0.20749 -0.07326 
0.14456 0.34004 0.03961 
0.04368 0.17249 -0.07199 
0.15669 -0.18054 0.00145 
0.03588 -0.43426 -0.01572 
-0.13321 0.4065 0.03102 
-0.05588 0.00423 -0.06995 
0.11378 0.42683 -0.06643 
0.05168 0.21238 -0.0151 
-0.11205 -0.39351 -0.07479 
0 -0.41173 0.03039 
-0.13183 0.26525 -0.11509 
-0.11413 -0.05887 0.0812 
-0.06254 0.4334 -0.06691 
-0.15719 0.21431 -0.00127 
-0.14937 0.02029 0.03057 
0.1138 -0.24654 -0.09371 
0.12082 -0.41795 0.01084 
-0.09725 0.06587 0.11031 
0.06648 0.43805 -0.01789 
0.05061 -0.42871 0.00555 
0.06331 0.44891 -0.06121 
0.12057 0.02896 -0.06412 
-0.0548 -0.06432 0.11177 
-0.13183 -0.32251 -0.10526 
0.12821 0.3047 0.04538 
-0.11205 0.29707 -0.03644 
-0.04898 -0.07369 -0.04563 
-0.11334 0.26651 -0.09371 
0.1562 0.2926 -0.01927 
-0.1322 0.24257 0.04477 
0.06667 -0.4555 -0.05328 
-0.15114 -0.28604 -0.08872 
0.03002 -0.40422 0.03221 
-0.14733 -0.22887 -0.03271 
0.13963 0.42883 -0.06116 
0.07282 -0.42892 -0.00965 
0.15808 0.16396 -0.01692 
-0.1035 0.19353 -0.06412 
-0.15274 -0.3608 -0.02032 
0.09515 0.20195 0.01085 
-0.10002 0.22753 0.09924 
-0.15808 0.16396 -0.01692 
-0.15073 0.14327 -0.05681 
-0.06655 0.45717 -0.03933 
-0.09511 0.21427 0.06169 
0.09725 0.06587 0.11031 
-0.06715 -0.40466 0.02571 
0.12821 0.35684 0.04314 
-0.11401 0.38911 0.04205 
0.07278 -0.15086 0.04018 
0.06297 0.32013 0.05001 
0.15195 0.24715 -0.10943 
-0.0314 0.21167 0.11555 
0.1322 0.24257 0.04477 
0.1269 0.0106 -0.04563 
0.12763 0.27413 0.04769 
0.08936 -0.07226 0.10428 
-0.04071 0.21335 -0.00068 
0.04782 -0.12983 0.04018 
-0.12919 0.06437 0.04316 
0.08921 -0.45093 -0.05375 
0 0.45717 -0.03933 
0.1269 -0.07369 -0.06368 
-0.15405 0.37653 -0.01592 
0.15115 0.22701 -0.08872 
-0.11298 0.06241 0.08162 
0.11541 0.2343 -0.11667 
-0.04322 0.26117 0.08386 
-0.15831 -0.05789 -0.01692 
-0.06706 -0.42753 0.00812 
-0.04657 0.17249 -0.07199 
-0.09524 0.20195 0.01085 
-0.07649 0.21877 0.11022 
0.06548 -0.07369 -0.04987 
-0.04314 -0.11733 0.08241 
0.1138 -0.31095 -0.09371 
-0.10065 -0.04711 0.10257 
0.05375 -0.41705 -0.02813 
-0.02801 0.04879 0.12265 
0.11434 0.19134 -0.0863 
-0.12115 -0.4186 0.00579 
0.11085 0.06437 0.04316 
-0.12919 0.04878 -0.00068 
0.1138 0.20429 -0.03149 
-0.11334 -0.32274 -0.07329 
-0.06455 -0.32949 0.03375 
-0.0748 0.19079 -0.06412 
-0.0632 0.2149 -0.0151 
0.11413 -0.05887 0.0812 
-0.00616 -0.08566 -0.01487 
0.04061 0.09088 -0.04563 
0.15195 0.19134 -0.03669 
0.09976 -0.01654 -0.04892 
0.145 -0.4258 -0.02636 
0.0977 -0.02497 0.10851 
0 0.43805 -0.01789 
-0.15114 0.24943 -0.06555 
-0.03002 -0.32956 0.03818 
-0.15114 -0.25201 -0.04098 
-0.06078 0.32136 -0.07356 
0.08333 -0.08747 -0.00211 
-0.00065 -0.00182 -0.03332 
0.05428 -0.0908 0.03066 
0.08595 -0.08857 0.03417 
0.07481 -0.09402 0.0623 
-0.12919 0.0106 -0.04563 
0.05426 0.20195 0.01085 
0.03357 -0.43291 -0.05808 
-0.03654 -0.43291 -0.06581 
0.01376 -0.4342 -0.02323 
0.01606 -0.4508 -0.06273 
-0.08617 -0.45158 -0.05328 
-0.15005 0.23909 -0.04365 
0.15274 -0.3608 -0.02032 
0.03368 -0.07906 0.10661 
0 -0.07906 0.10661 
-0.05375 -0.41705 -0.02813 
0.15115 -0.27091 -0.04794 
0.11205 -0.34711 -0.07479 
0.1138 -0.23476 -0.07329 
0.1138 -0.23476 -0.04971 
0.15115 0.2343 -0.04584 
0.15115 0.24943 -0.06555 
-0.11334 0.21154 -0.02206 
0.13207 0.1807 -0.03056 
0.1138 0.21154 -0.10094 
-0.15114 -0.26363 -0.06555 
-0.1126 -0.34655 -0.05516 
-0.13183 0.27806 -0.01774 
-0.11334 0.24609 -0.10549 
-0.03368 -0.07906 0.10661 
