ply
format ascii 1.0
comment VCGLIB generated
element vertex 652
property float x
property float y
property float z
element face 0
property list uchar int vertex_indices
end_header
-0.1625 0.19363 -0.02128 
0.1355 -0.22008 -0.04469 
0.15281 -0.29422 -0.03412 
-0.12178 0.16644 0.10261 
0.15146 0.16604 -0.08053 
-0.13537 0.19771 -0.1243 
0.16302 -0.23019 -0.05047 
-0.09107 -0.35985 0.01942 
0.16034 -0.29882 -0.1051 
0.08967 0.40419 0.05012 
0.13287 -0.24552 -0.12271 
0.16244 -0.31886 -0.08884 
-0.15801 -0.26659 -0.08674 
-0.11974 -0.3778 -0.01799 
0.15828 -0.307 -0.0658 
-0.15269 0.22924 -0.08929 
0.06 -0.42753 -0.07408 
-0.16109 -0.31767 -0.08838 
-0.12432 0.26823 -0.04376 
-0.06684 -0.43 -0.02642 
0.15052 0.22478 -0.0549 
0.15496 -0.28131 -0.12954 
0.15373 0.2083 -0.08179 
0.14113 0.25043 -0.09288 
0.15496 0.28405 -0.07475 
-0.16573 -0.14033 0.04203 
-0.02763 0.4385 -0.07464 
-0.15263 0.18439 -0.06498 
-0.1265 0.40033 -0.01492 
-0.08592 -0.04876 0.11726 
0.10986 0.07334 0.12416 
-0.1623 0.27203 -0.08307 
0.06511 -0.43327 -0.03126 
-0.14548 -0.20983 0.03416 
0.16571 0.22522 -0.00048 
0.12426 0.31331 0.0645 
0.1265 0.40033 -0.01492 
-0.09122 0.42307 -0.01809 
-0.12432 -0.25223 -0.02496 
0 0.28684 0.08273 
-0.16093 -0.24064 -0.05614 
-0.0008 -0.42432 -0.01698 
-0.01634 -0.43409 -0.08725 
-0.12507 0.22892 -0.12989 
0.13243 0.28447 -0.06461 
-0.13057 -0.22247 -0.10113 
-0.15268 0.22522 -0.1132 
0.16422 0.27032 -0.03828 
0.14113 0.19023 -0.07025 
-0.10823 -0.40609 -0.06047 
-0.1006 -0.4057 -0.08671 
-0.14976 0.22951 -0.06078 
0.16365 -0.23699 -0.02641 
-0.16123 -0.21501 -0.05982 
0.1252 -0.31427 -0.02808 
-0.09813 0.42395 -0.07065 
0.14698 -0.33126 -0.05358 
-0.15536 0.28652 -0.0085 
0.1552 0.2349 -0.07633 
0.15233 -0.21407 -0.06729 
0.0433 -0.19961 0.04985 
-0.16123 0.24213 -0.12856 
0.02761 0.14598 0.12776 
-0.15968 0.1478 -0.06937 
-0.12405 0.28304 -0.07469 
-0.15401 -0.2917 -0.08298 
0.11317 0.1853 0.1127 
0.14778 0.36574 -0.03619 
0.10913 0.40242 -0.07268 
0.01634 -0.43409 -0.06164 
-0.16123 -0.22445 -0.0372 
-0.15263 0.23207 -0.03035 
0.08473 -0.42547 -0.06231 
0.0317 -0.43195 -0.08224 
-0.15617 0.3057 -0.06432 
-0.12507 0.21056 -0.01395 
-0.12432 -0.24398 -0.11226 
0.14206 -0.05841 0.05681 
0.02767 0.43605 -0.01897 
0.13383 -0.33091 0.01812 
0.14683 0.24864 -0.05309 
0.15211 -0.12975 0.04427 
-0.06036 -0.21477 0.03777 
-0.1623 0.18028 -0.08884 
-0.02763 0.43957 -0.03619 
0.16337 -0.22547 -0.08679 
-0.14669 -0.25418 -0.04125 
0.05912 -0.21671 0.03644 
0.09732 -0.41567 -0.08377 
-0.15191 -0.35794 -0.02977 
-0.10549 0.03781 0.1247 
0.16263 0.1798 -0.03348 
-0.12507 -0.30551 -0.02128 
-0.05912 0.1907 0.11775 
-0.06001 -0.43553 -0.08754 
0.13641 -0.25952 0.03183 
-0.13274 -0.29214 -0.12712 
0.15646 0.26383 0.00531 
0.11832 0.41389 -0.03619 
0.16629 -0.31942 -0.02703 
0.1425 -0.19392 0.04015 
0.1329 0.22758 0.07834 
0.13287 -0.32558 -0.09945 
0.11436 0.21532 -0.01016 
0.14733 -0.15848 0.04241 
0.11436 0.24482 -0.01228 
0.13287 0.25681 -0.12082 
0.14104 -0.3547 -0.00072 
-0.15039 0.20721 -0.07367 
0.14144 0.07897 0.06394 
-0.09461 0.31247 -0.07565 
-0.15268 -0.27392 -0.1132 
-0.12507 0.1798 -0.10863 
0.14683 -0.25316 -0.05037 
0.15233 0.20669 -0.12808 
0.12316 -0.07015 0.10121 
0.11483 -0.03027 0.11558 
0.13927 0.36929 0.04507 
0.05113 0.42406 -0.01876 
-0.16408 0.27706 -0.05053 
0.02761 0.17514 0.12375 
-0.15732 -0.18826 -0.06975 
0.14054 0.39177 -0.05073 
0.14698 -0.22478 -0.10538 
0.07216 -0.07328 0.11148 
0.03195 -0.42363 -0.01784 
-0.15482 0.26855 -0.111 
0.1279 -0.24565 -0.03688 
-0.11744 0.00309 0.10977 
-0.10376 0.29359 0.07408 
-0.13032 -0.22917 -0.03118 
0.14746 -0.36018 -0.09419 
0.07566 0.41359 0.02828 
-0.1648 0.24736 -0.00369 
-0.16324 0.20068 -0.11569 
0.1355 -0.29599 -0.0153 
0.15233 -0.2664 -0.01156 
-0.17739 -0.12468 0.05646 
-0.16089 -0.05488 -0.03103 
-0.16217 -0.11683 0.01774 
0.14285 0.22899 -0.0112 
-0.14547 -0.37292 -0.05254 
0.16333 0.16217 -0.05032 
-0.12432 0.19035 -0.03392 
-0.1522 0.21551 -0.0119 
-0.10435 0.39469 -0.08047 
0 -0.19282 0.0511 
0.12362 -0.30669 -0.11616 
0.12446 0.17518 -0.0806 
0.16263 0.18764 -0.11647 
-0.13537 -0.21501 -0.05982 
-0.149 -0.21548 -0.08319 
0.16302 0.25603 -0.10829 
0.13536 -0.39035 -0.08913 
-0.02761 -0.05319 0.12007 
-0.15647 0.03145 -0.06415 
0.15248 -0.16232 -0.09157 
0.15815 -0.26659 -0.08674 
-0.07376 0.39469 -0.07201 
-0.11734 0.35353 -0.07226 
-0.16208 0.27073 -0.02654 
-0.14885 0.35177 -0.00824 
-0.02761 -0.02248 0.12557 
-0.07559 0.39818 0.05333 
-0.02769 0.41845 0.01146 
-0.13939 -0.32502 -0.10239 
-0.13393 -0.11501 0.07772 
0.11415 -0.26402 -0.01064 
0.11612 -0.3778 -0.00296 
-0.07212 0.31105 0.06939 
0.15078 0.3337 -0.08392 
-0.14901 0.1809 -0.11141 
-0.14312 0.35359 0.01949 
-0.09898 -0.38235 -0.00585 
0.13243 0.22899 -0.1309 
-0.12777 -0.31136 -0.04729 
-0.03775 -0.40776 -0.0906 
0.12362 -0.22506 -0.09791 
-0.08069 -0.4235 -0.0824 
-0.11402 -0.20587 -0.06937 
0.14371 0.20121 -0.04682 
-0.1628 -0.23188 -0.09439 
0.11527 -0.37784 -0.06657 
0.05912 0.14501 0.12628 
0.06841 -0.40776 -0.03183 
-0.05448 0.41679 0.02946 
0.16161 -0.28927 0.01508 
-0.14099 0.2054 -0.04356 
-0.1304 0.26542 0.07667 
0.16337 -0.25223 -0.11714 
0.08669 0.25393 0.09231 
-0.15482 -0.32748 -0.04645 
0.1279 -0.22966 -0.06827 
-0.13577 -0.27737 0.02915 
-0.11402 0.03144 -0.08977 
0.12362 0.19535 -0.02398 
0.02761 0.40436 0.05466 
-0.15264 -0.23634 -0.11647 
0.1355 -0.33377 -0.07482 
0.1252 0.27499 -0.10264 
0.15379 -0.35969 -0.04087 
-0.13492 0.16689 -0.07943 
0.16113 0.07566 0.01417 
-0.13537 -0.28235 -0.0117 
-0.11828 0.19006 0.10755 
-0.14598 0.17459 -0.03892 
0.16417 0.19081 -0.00376 
-0.15039 0.3556 -0.07065 
-0.02761 0.3598 0.05938 
-0.16352 -0.31358 -0.02882 
0.16012 0.13296 -0.00319 
0.02761 -0.06643 0.11688 
-0.15888 0.18664 0.00534 
0.05713 -0.28305 0.03671 
-0.12633 0.25411 -0.1236 
-0.14837 -0.06107 0.04026 
0.13505 0.16728 -0.06025 
-0.10284 -0.01602 0.12061 
0.10033 -0.35734 0.01704 
0 -0.41718 -0.07807 
-0.15798 -0.2849 -0.03506 
0.15256 -0.33042 0.00144 
0.15772 -0.34626 -0.01836 
0.15146 0.25234 -0.0176 
-0.125 0.39593 0.01604 
-0.13482 0.25052 -0.05685 
0 -0.04029 0.12288 
-0.15289 -0.33864 -0.00507 
-0.12432 -0.32326 -0.08372 
0.07912 -0.3109 0.03142 
-0.12432 0.24976 -0.02641 
-0.09461 0.34986 -0.08436 
-0.02761 0.07311 0.13102 
-0.1445 0.37812 -0.02037 
0.08093 0.19933 0.11228 
0 0.44483 -0.05661 
-0.03858 -0.4319 -0.06555 
-0.0765 -0.33897 0.02624 
-0.15067 0.33908 -0.03027 
-0.13262 0.37843 0.03086 
0.02761 0.11536 0.12985 
0.15411 -0.06075 0.03591 
-0.02761 -0.20458 0.0427 
-0.1396 -0.31223 0.0203 
0.15578 0.23365 0.03579 
-0.0962 -0.40026 -0.02398 
0.07197 0.40071 -0.07623 
7e-05 0.08326 -0.08977 
0.12446 -0.27712 -0.12189 
0.12357 0.28894 0.07288 
0.15642 0.03144 -0.08254 
0.18326 -0.13231 0.04886 
0 0.41844 0.03572 
0.08002 -0.43547 -0.08994 
-0.14598 -0.25539 -0.01402 
0.16205 0.02946 0.01073 
0.0865 -0.12772 0.08401 
-0.08169 -0.28052 0.03606 
0.15642 -0.08891 -0.08254 
0.13706 -0.36792 -0.07111 
0.14257 0.3714 0.01882 
-0.15866 -0.29923 -0.10707 
0.10048 0.42725 -0.05017 
0.13042 -0.1177 0.0815 
-0.16024 -0.19126 -0.03922 
0.12292 -0.14748 0.06815 
0.112 0.34569 0.06044 
-0.16176 -0.17171 0.01293 
0.13749 -0.38559 -0.05401 
-0.16206 -0.27583 0.01612 
-0.07682 -0.41292 -0.00177 
0.12618 0.05291 0.09664 
-0.13708 -0.35794 0.00798 
0.13045 0.19498 -0.1228 
-0.14489 0.37795 -0.04919 
0 -0.13312 0.08547 
0.08891 0.28136 0.08076 
0.11415 -0.20539 -0.08254 
0.07611 0.43582 -0.05003 
0.1518 0.30931 0.02737 
-0.13624 -0.3331 -0.06157 
0.05231 -0.41723 -0.00669 
-0.05113 0.40173 0.05388 
0.05785 -0.25656 0.04039 
-0.12386 -0.3873 -0.06132 
7e-05 0.03144 -0.08977 
0.10474 0.11207 0.12521 
0.11098 0.40002 0.01608 
-0.1281 0.20124 0.08652 
0.15516 -0.25339 0.0174 
-0.16123 -0.25722 -0.12826 
0.08219 -0.39999 -0.01013 
0.15798 0.03066 0.03507 
0.08717 -0.3789 0.01414 
0.05154 0.41724 0.02964 
0.09292 0.42123 -0.01661 
0.12446 0.26823 -0.04376 
7e-05 0.15545 -0.08977 
-0.11206 0.39552 0.05282 
-0.13482 -0.23834 -0.06726 
-0.13698 0.39779 -0.06075 
0.08768 -0.18615 0.0503 
0 -0.16553 0.06752 
-0.07561 0.43574 -0.06441 
0.05912 0.03549 0.12893 
0.09461 0.34986 -0.08436 
-0.11423 0.16686 -0.04158 
-0.12618 0.05291 0.09664 
-0.12043 -0.07015 0.10448 
-0.1613 -0.22417 0.0021 
-0.14733 -0.15848 0.04241 
0.15949 0.15771 -0.00743 
-0.14976 -0.27816 -0.05972 
0.04293 -0.13157 0.08524 
0.15157 0.35852 -0.06215 
-0.14605 0.34745 0.04449 
-0.15701 -0.30244 -0.05566 
0.1619 0.21188 -0.03174 
0.15181 0.31265 -0.04967 
0.05523 0.20143 0.11426 
7e-05 -0.34342 -0.08738 
-0.112 0.34569 0.06044 
-0.1166 0.21767 0.10244 
-0.05366 -0.38297 0.01626 
0.16263 0.22892 -0.12989 
-0.1336 0.16516 0.07988 
0.0597 0.31347 0.06886 
-0.15972 0.13342 0.01841 
0.09782 0.22311 0.10268 
-0.15787 -0.35218 -0.08051 
0.1336 0.16516 0.07988 
0 -0.41718 -0.03992 
0.11043 -0.3937 -0.02214 
0.12486 -0.17471 0.05247 
0.0852 -0.03589 0.11967 
-0.11057 -0.2269 0.04081 
-0.07216 -0.07328 0.11148 
-0.04569 -0.4194 -0.01035 
0.1355 0.17671 -0.0358 
0.14386 -0.24903 -0.07536 
0.05107 0.44062 -0.05589 
0.08519 0.17231 0.12035 
0.14113 0.21211 -0.10344 
-0.07547 -0.42321 -0.05728 
-0.05107 0.44145 -0.05672 
-0.11988 0.24571 0.09129 
-0.01634 -0.43932 -0.05728 
-0.08439 0.35353 -0.06293 
0.07279 -0.40776 -0.0908 
-0.1137 -0.09865 0.09464 
0.16152 -0.34235 -0.06985 
-0.15705 0.07799 0.03754 
0.10822 -0.40609 -0.06047 
-0.05785 -0.25656 0.04039 
-0.15935 0.14197 -0.02597 
0.13517 -0.29425 0.02608 
0.15883 0.16844 0.03558 
0.05366 -0.38297 0.01626 
-0.10986 0.41887 -0.04852 
-0.14633 -0.37444 -0.08832 
0.15498 -0.28041 -0.06002 
0.10436 -0.41608 -0.02992 
0.15615 0.07739 -0.06239 
0.1081 -0.27685 0.03279 
0.14516 -0.23571 0.03028 
-0.14157 -0.13964 0.059 
0.16112 -0.12072 -0.01759 
-0.08316 0.11338 0.1271 
0.15723 0.1974 0.02157 
-0.10724 -0.25189 0.03743 
-0.08914 0.40833 0.01146 
0.02769 0.41845 0.01146 
-0.14941 0.15545 -0.09572 
0.05533 -0.34122 0.02693 
-0.15455 0.16904 0.04145 
-0.08663 -0.19872 0.04271 
-0.14256 0.20604 0.05641 
0 0.4191 0.01146 
0.05912 0.17398 0.12216 
0.15664 -0.12072 -0.06623 
-0.14357 0.25713 -0.07859 
-0.15633 -0.06072 -0.06709 
0.14612 0.17459 -0.10318 
0.15935 0.14197 -0.02597 
-0.16203 0.01978 0.026 
0.1279 -0.3161 -0.05735 
-0.13802 0.24164 0.06918 
-0.10139 0.17072 0.11844 
-0.05107 0.42998 -0.07788 
-0.11402 -0.32639 -0.03408 
-0.15633 0.23309 0.03851 
0 -0.1088 0.0983 
0.10415 -0.30699 0.02802 
-0.07546 -0.40776 -0.03432 
-0.12444 -0.40349 -0.08976 
0.16089 -0.05488 -0.03103 
0.08169 -0.28052 0.03606 
0.14947 0.33926 0.01884 
-0.02686 -0.31563 0.03302 
0.14605 0.12545 0.05105 
-0.16034 -0.00511 0.02487 
-0.16641 -0.29606 -0.00417 
0.12159 0.39325 0.04204 
-0.05912 -0.05165 0.11902 
-0.14158 0.2833 -0.05614 
0.09695 -0.07071 0.10946 
0.12768 0.02459 0.09572 
-0.14941 0.08326 -0.09572 
-0.16112 -0.12072 -0.01759 
0.14113 -0.30336 -0.0904 
-0.15882 0.25467 -0.05748 
-0.13703 -0.23821 0.03476 
-0.05114 0.42206 -0.01221 
0.14474 -0.3733 -0.01552 
-0.12216 -0.4046 -0.03697 
0.04198 -0.16415 0.06729 
-0.15642 -0.08891 -0.08254 
0.14436 0.22321 0.05561 
0.1448 0.25509 0.05411 
0.15686 0.13897 -0.08097 
-0.08669 0.22513 0.10367 
-0.14941 0.03144 -0.09572 
0.15641 0.13487 -0.05668 
-0.12633 0.27777 -0.09994 
0.1577 -0.17154 0.01931 
0.14361 0.17328 0.05593 
0.02686 -0.31563 0.03302 
-0.1184 0.31396 0.06611 
0 -0.07711 0.11322 
0.0861 -0.10328 0.09684 
-0.12777 0.18227 -0.06002 
-0.14144 0.07897 0.06394 
0.09539 0.4244 -0.07488 
0.08378 -0.2539 0.03975 
-0.15703 0.22524 0.01453 
0.14113 -0.27136 -0.10539 
-0.08224 -0.34342 -0.08738 
0.15686 -0.19203 -0.08097 
-0.02833 0.28631 0.08245 
7e-05 -0.20537 -0.08977 
-0.15706 0.20031 0.03327 
-0.14115 0.12566 0.06503 
0.14162 0.05139 0.06331 
0.15036 0.34211 -0.02831 
-0.16122 0.0752 -0.02493 
-0.13678 -0.18189 0.04658 
0.02612 -0.40357 0.01004 
-0.15359 0.27378 0.03761 
-0.1181 0.14015 0.11278 
-0.09937 0.07326 0.12664 
0.15248 0.08326 -0.09157 
0.02761 -0.02248 0.12557 
0 0.43696 -0.01897 
0.15684 -0.16488 -0.0674 
-0.11107 -0.04398 0.11469 
-0.11704 0.11101 0.112 
-0.02612 -0.40357 0.01004 
0.13558 -0.0955 0.07119 
0.15536 0.28652 -0.0085 
-0.15964 0.16446 -0.00906 
0.11882 0.13942 0.1086 
-0.12425 -0.16049 0.06067 
0 -0.28574 0.03781 
-0.12777 -0.30219 -0.10522 
0.11415 -0.34342 -0.08738 
-0.15898 -0.12072 -0.05004 
0.0896 0.35422 0.05905 
0.14202 -0.01135 0.05983 
0.14374 0.3319 0.04864 
-0.11526 -0.19633 0.04163 
0 -0.38633 0.01763 
0.11436 0.16686 -0.04158 
-0.13624 0.2347 -0.01187 
0.11415 -0.16232 -0.08977 
0 0.3176 0.06817 
0.02763 0.44302 -0.04992 
0.02833 0.28631 0.08245 
0.14113 -0.27359 -0.03801 
-0.09952 -0.30889 0.02942 
0.12644 0.07978 0.09619 
0.02579 0.20249 0.11556 
-0.11423 0.15679 -0.06937 
0.10497 0.35353 -0.06293 
0.11352 0.03892 0.11976 
-0.16319 0.16217 -0.05032 
-0.05912 0.03549 0.12893 
0.16217 -0.11683 0.01774 
-0.14808 0.01179 0.04504 
-0.07559 0.35728 0.05882 
-0.02761 0.17514 0.12375 
0.16082 -0.19736 -0.02735 
-0.11402 -0.16232 -0.08977 
-0.02704 -0.28519 0.03763 
0.04364 -0.10713 0.09807 
0.11486 0.00233 0.11713 
0.1137 -0.09865 0.09464 
-0.16098 0.02956 -0.02841 
0.08857 0.30465 0.07075 
-0.15099 0.31252 0.03936 
-0.15642 -0.16232 -0.08254 
7e-05 -0.08891 -0.08977 
-0.14407 -0.37943 -0.02158 
-0.02582 0.31708 0.06815 
-0.15289 0.31018 -0.04054 
0.12224 -0.22241 0.03996 
0.08238 -0.34342 -0.08738 
-0.10507 -0.33423 0.02248 
-0.14099 0.19904 -0.09459 
0.05113 0.35905 0.05921 
-0.16157 -0.05487 0.00546 
-0.15722 -0.24569 0.01422 
-0.15064 0.3337 -0.08392 
0 0.19219 0.11964 
-0.13791 -0.26268 -0.12996 
-0.05916 0.22787 0.1049 
0.05916 0.25776 0.09303 
0.03775 -0.40776 -0.0906 
-0.04198 -0.16415 0.06729 
-0.13803 0.30201 0.0581 
0.15278 0.27688 -0.09945 
0.15414 0.27322 0.04 
0.08349 0.0363 0.12702 
0.05912 -0.03856 0.12145 
0.10507 -0.33423 0.02248 
0 -0.23402 0.04471 
0.08579 -0.22891 0.04307 
-0.11402 0.08326 -0.08977 
0.15812 0.2362 -0.03506 
0.13453 0.39396 -0.07879 
0 0.11597 0.12963 
-0.05912 0.11463 0.1287 
0.11415 -0.34034 -0.06014 
-0.14211 -0.10147 0.054 
-0.08901 0.40782 0.0357 
0 -0.34431 0.02816 
0.08707 -0.1603 0.06644 
0.16192 -0.00406 0.01914 
-0.02761 0.14598 0.12776 
-0.03775 -0.43784 -0.04053 
-0.11545 0.36929 0.0573 
0.12656 -0.00172 0.09402 
-0.02767 0.41696 0.04088 
0.02704 -0.28519 0.03763 
7e-05 0.43335 -0.07777 
-0.05916 0.25776 0.09303 
0.05912 0.11463 0.1287 
0.07197 0.35353 -0.07623 
0.02761 0.32753 0.0636 
0.09474 0.31247 -0.07565 
0.1604 -0.17018 -0.03678 
0.08316 0.07316 0.12781 
0.02761 0.03381 0.13023 
0.02734 -0.23347 0.0446 
0.1281 0.20124 0.08652 
0.02761 0.07311 0.13102 
-0.08093 0.19933 0.11228 
0.15633 -0.06072 -0.06709 
-0.02762 0.22926 0.10572 
-0.14099 -0.25233 -0.09676 
-0.05912 -0.02093 0.12429 
-0.02734 -0.23347 0.0446 
-0.16105 -0.1713 -0.02122 
0.01633 -0.43995 -0.03413 
0.02763 0.4385 -0.07464 
0 0.22969 0.10607 
-0.13516 0.01992 0.0784 
0 0.03341 0.1304 
-0.02667 -0.34348 0.02788 
-0.04364 -0.10713 0.09807 
-0.05912 0.14501 0.12628 
-0.14798 -0.12503 0.03544 
-0.0861 -0.10328 0.09684 
0.05912 0.07311 0.12976 
0.15956 0.12497 0.02979 
0.11415 0.03144 -0.08977 
-0.02502 -0.42543 -0.02137 
-0.02761 0.03381 0.13023 
-0.08669 0.25393 0.09231 
-0.0839 0.14411 0.12451 
0.1279 0.24658 -0.03219 
0.14612 0.20314 -0.0153 
0.11415 -0.21085 -0.05081 
0.08415 -0.00165 0.12446 
0.1304 0.26542 0.07667 
-0.12644 0.07978 0.09619 
0.11415 -0.08891 -0.08977 
0.14195 0.01582 0.06153 
-0.15615 0.07739 -0.06239 
-0.09695 -0.07071 0.10946 
0 0.14628 0.12776 
0.16122 0.0752 -0.02493 
-0.14202 -0.01135 0.05983 
0.15924 -0.18733 -0.05363 
0.16114 -0.23157 0.00711 
-0.02579 0.20249 0.11556 
-0.06068 0.28465 0.08177 
0.06068 0.28465 0.08177 
0.11502 0.24902 0.09133 
-0.08579 -0.22891 0.04307 
-0.02762 0.25969 0.0935 
-0.02719 -0.25852 0.0413 
-0.1081 -0.27685 0.03279 
0.1597 0.03032 -0.0457 
-0.04456 -0.07562 0.11245 
-0.16137 -0.20476 -0.01659 
-0.11402 -0.34235 -0.06985 
0.16655 -0.29352 -0.01277 
-0.05713 -0.28305 0.03671 
0 0.36011 0.05938 
0 0.07311 0.13102 
-0.15336 0.30959 0.006 
0.02719 -0.25852 0.0413 
-0.02761 0.11536 0.12985 
0.02649 -0.36618 0.02269 
-0.0865 -0.12772 0.08401 
-0.14767 0.05062 0.0472 
0 0.2603 0.0937 
-0.12748 -0.05041 0.09044 
7e-05 0.4024 -0.07623 
7e-05 0.31247 -0.07565 
-0.07561 0.43237 -0.03619 
0.02762 0.22926 0.10572 
0.16157 -0.05487 0.00546 
0.11415 0.14646 -0.08977 
-0.05624 -0.31328 0.03209 
-0.15908 -0.16802 -0.05232 
0.13497 0.12588 0.07997 
-0.05912 0.07311 0.12976 
-0.14086 0.38159 -0.07936 
0.11415 0.08326 -0.08977 
-0.11402 -0.08891 -0.08977 
-0.08707 -0.1603 0.06644 
0 -0.00539 0.12794 
0.0839 0.14411 0.12451 
0.13495 0.26099 -0.07076 
-0.15298 0.29435 -0.08621 
0 -0.25907 0.04145 
0.02762 0.25969 0.0935 
0.05916 0.22787 0.1049 
-0.16352 -0.27392 -0.01312 
0.0512 0.42998 -0.07788 
0.15776 -0.20545 0.01718 
-0.09721 -0.42107 -0.03963 
-0.04293 -0.13157 0.08524 
0.1101 -0.25024 0.03695 
7e-05 -0.16232 -0.08977 
-0.06366 -0.19441 0.05143 
0.11415 -0.22841 -0.02703 
0.05912 -0.00331 0.12647 
0.11082 0.37189 0.05655 
0 -0.31618 0.03325 
-0.06192 -0.40986 -0.08865 
