ply
format ascii 1.0
comment VCGLIB generated
element vertex 658
property float x
property float y
property float z
element face 0
property list uchar int vertex_indices
end_header
0.03981 -0.42851 -0.01754 
0.13478 0.39213 0.08807 
-0 0.42688 0.01278 
0.07017 -0.13276 -0.01659 
-0.07755 0.09182 0.15152 
-0.10202 -0.38192 -0.07912 
0.16588 0.19646 -0.09093 
-0.07714 -0.40076 0.03743 
-0.10948 -0.34234 0.04367 
-0.02924 0.36723 0.15009 
0.14016 0.07525 -0.02394 
-0.12538 0.28228 -0.07116 
-0.15962 0.23537 0.0164 
-0.16758 0.2655 -0.00499 
-0.10471 0.19177 0.14284 
0.11738 -0.32667 -0.12654 
-0.16258 0.29468 0.00162 
0.10755 0.30292 -0.03925 
-0.15421 0.19752 0.04473 
-0.16588 0.19646 -0.09093 
-0.10927 0.02967 0.13579 
0.00187 0.12863 -0.05352 
0.15266 -0.29269 0.02491 
0.12174 0.19647 0.11966 
-0.10602 0.31864 -0.02147 
-0.06967 0.44079 -0.0492 
0.15681 0.00945 0.02867 
-0.11543 -0.32038 -0.15888 
0.10934 -0.06839 0.13481 
-0.03981 -0.42604 -0.02789 
0.02374 0.02968 0.06357 
0.12385 -0.10442 -0.02839 
-0.0479 -0.15386 -0.07133 
0.16762 0.20184 -0.14506 
0.05434 0.04279 0.06803 
-0.02643 0.07453 0.16159 
-0.12536 0.25137 -0.04651 
0.10202 -0.37506 -0.05547 
-0.1284 -0.11368 0.10144 
-0.00121 0.35509 -0.00191 
0.05225 -0.06274 0.14736 
-0.03894 0.0274 0.06471 
-0.15866 -0.35756 -0.01969 
0.06967 -0.39147 -0.10374 
-0.08057 0.31864 -0.02147 
-0.10202 -0.21116 -0.10327 
0.12385 0.02968 0.06357 
-0.16309 0.24121 -0.01948 
-0.16594 0.27742 -0.06464 
0.1638 -0.24482 -0.01147 
-0.03894 0.01728 -0.00883 
-0.13726 -0.22344 0.04641 
-0.02077 -0.06669 0.14868 
-0.10202 -0.21787 -0.05547 
-0.15282 -0.15977 0.00787 
0.1358 0.01263 0.08807 
-0.10755 0.32731 -0.10374 
0.03981 -0.39546 -0.10374 
0.16758 0.31033 -0.03111 
0.16618 0.32601 -0.05207 
-0.06967 0.42971 -0.09356 
0.09803 -0.0977 -0.02674 
-0.13536 0.37965 0.08807 
0.04617 -0.17885 0.04575 
0.00418 -0.43174 -0.00252 
-0.1676 0.17754 -0.11161 
0.13681 0.16646 0.08807 
-0.0868 0.04616 0.15092 
-0.16315 0.31269 -0.09092 
-0.16758 0.28449 -0.0246 
0.06286 -0.17314 0.0221 
0.12336 0.19922 -0.14873 
0.15799 -0.27199 -0.1271 
-0.15446 -0.26198 0.01917 
-0.1612 0.15247 -0.01964 
0.07156 -0.14475 0.06179 
-0.15518 -0.25634 -0.14873 
0.04976 0.14037 0.15176 
-0.10602 0.23133 -0.02302 
-0.1154 -0.3561 -0.13292 
-0.10202 -0.2497 -0.01856 
0.0247 0.23933 0.15886 
0.15798 -0.28445 -0.0484 
0.16311 0.26326 -0.15888 
-0.14874 0.01045 -0.10374 
0.12344 0.30916 -0.06885 
0.0896 -0.25156 0.05543 
-0.1427 -0.41584 -0.02804 
-0.14932 -0.1651 0.03283 
-0.0199 -0.42495 0.02194 
0.02374 -0.05393 -0.06045 
0.09963 0.00972 0.05877 
0.13773 -0.41406 -0.01417 
0.04957 -0.0977 -0.02674 
-0.11542 -0.3403 -0.03313 
-0.10755 0.16219 -0.05828 
0.09803 -0.01917 -0.02839 
-0.09206 -0.38052 0.03867 
-0.14342 -0.36782 0.03204 
0.16313 0.29898 -0.13292 
-0.06477 -0.0977 -0.02674 
0.03497 0.08485 -0.01982 
0.16732 0.18958 -0.0157 
-0.08419 -0.41756 0.01908 
0.02681 -0.15386 0.04687 
0.09908 0.21357 0.14681 
-0.15513 -0.32041 -0.15888 
0.15515 -0.2983 -0.01948 
0.16643 0.23719 -0.04944 
-0.15819 0.20443 0.02097 
-0 -0.41855 0.03635 
0.1664 0.20868 -0.11791 
0.11737 -0.34383 -0.09093 
-0.13691 0.07607 -0.02302 
0.14494 -0.16819 0.04736 
-0.1638 -0.24482 -0.01147 
-0.12038 0.36425 0.11966 
-0.03822 -0.42485 -0.05927 
-0.0479 -0.17309 0.01842 
-0.01637 -0.14375 0.01982 
-0.04977 0.00301 0.14956 
0.07713 -0.34484 0.04951 
0.02924 0.36723 0.15009 
-0.16595 0.28596 -0.09093 
-0.10332 0.16338 -0.02147 
0.16213 0.32623 0.00718 
0.03235 -0.21071 0.05527 
0.1488 -0.38192 -0.07912 
-0.16182 0.32653 0.01105 
0.15446 -0.26198 0.01917 
-0.08211 -0.42573 -0.09356 
0.10973 0.00211 0.135 
-0.10602 0.34612 -0.0242 
0.13989 -0.33794 0.0412 
-0.03894 -0.00199 -0.04348 
0.10436 0.19228 0.0657 
0.14955 -0.14285 0.0481 
-0.10979 0.14964 0.13532 
-0.11547 -0.27622 -0.02298 
0.1155 -0.23035 -0.06885 
-0.03108 -0.13486 -0.04178 
0.10846 -0.14641 0.05397 
-0.12992 0.42104 -0.00153 
0.15967 -0.35247 -0.0516 
-0.11741 -0.28814 -0.04651 
-0.13681 0.16646 0.08807 
0.07531 0.42125 0.04221 
-0.15667 0.33912 0.03829 
-0 0.44217 -0.07849 
-0.0615 -0.24318 0.04687 
-0.1552 -0.23038 -0.06885 
0.09278 -0.13243 0.03016 
-0.15518 -0.25634 -0.03312 
0.1664 0.20868 -0.06395 
-0.10661 0.36128 0.14112 
-0.16594 0.27742 -0.11721 
0.10202 -0.21116 -0.10327 
0.04957 -0.01917 -0.02839 
0.15858 0.18328 0.01635 
0.1672 0.16913 -0.03204 
0.1519 0.13345 0.04986 
-0.1203 0.0002 0.11966 
-0.15968 -0.33767 -0.03679 
0.02077 -0.00046 0.15102 
0.02425 0.31864 -0.02147 
-0.15846 -0.05371 0.01506 
-0.13905 0.01728 -0.00883 
-0.02611 -0.1747 0.08807 
-0.1519 0.13345 0.04986 
0.16307 0.2191 -0.02298 
-0.07465 0.41583 0.05648 
0.15925 -0.01462 0.0114 
0.08117 -0.17586 0.05826 
-0.06477 -0.01917 -0.02839 
0.15976 0.37905 0.01969 
-0.00121 0.31864 -0.02147 
0.16646 0.28269 -0.09493 
0.08709 -0.40912 -0.01389 
0.15519 -0.24053 -0.04893 
0.10948 -0.37681 0.03867 
0.12334 0.18341 -0.04893 
-0.07604 0.28614 0.14899 
-0.13297 0.41059 0.05648 
-0.06967 0.40309 0.08807 
0.16758 0.28967 -0.01504 
0.09972 0.35966 0.14688 
0.06352 -0.42671 -0.00461 
-0.10948 -0.29615 0.05038 
-0.08926 0.42413 0.01383 
0.02425 0.24011 -0.01982 
-0 0.42258 0.0412 
0.14016 0.14471 -0.05346 
-0 0.4244 -0.01492 
0.02077 -0.09232 0.14374 
0.1541 -0.2809 -0.1009 
-0.15795 -0.33451 -0.06464 
-0.00405 -0.15342 0.0448 
-0.12533 0.21284 -0.12654 
-0.16104 -0.32145 0.00071 
-0.16732 0.18958 -0.0157 
-0.16314 0.29898 -0.13292 
0.12538 0.28228 -0.11069 
0.16313 -0.27209 -0.0083 
0.07713 -0.38157 0.04363 
-0 0.44217 -0.0492 
0.02374 -0.01917 -0.02839 
0.12457 0.43554 -0.04109 
0.07883 -0.42485 -0.04379 
0.03981 -0.4303 -0.09356 
0.1366 0.13444 0.08807 
0.02681 -0.13486 -0.04178 
-0.03108 -0.12853 -0.07133 
-0.03981 -0.34789 0.05112 
0.08457 0.25205 0.15189 
-0.07668 0.25191 0.15231 
-0.13905 -0.0082 -0.04861 
-0.03172 0.16338 -0.02147 
-0.1502 0.15167 -0.10374 
-0.07704 0.22385 0.15214 
0.15962 0.23537 0.0164 
-0.16593 0.25506 -0.0484 
-0.15785 -0.31481 -0.08059 
-0.15004 0.43465 -0.0492 
-0.15799 -0.27199 -0.1271 
-0.0479 -0.17919 0.04687 
-0.1569 0.14774 0.02549 
0.10755 0.16219 -0.05828 
0.15336 0.23042 0.04866 
0.10398 0.3712 0.06716 
-0.06967 0.38751 0.11966 
0.06967 0.40309 0.08807 
0.03981 -0.30022 0.0559 
-0.02077 -0.00046 0.15102 
0.1079 0.12681 0.13772 
0.12333 0.16976 -0.09093 
0.02611 -0.1747 0.08807 
-0.03608 -0.25534 0.0591 
0.15516 -0.27625 -0.15888 
-0.158 -0.26209 -0.06464 
0.04976 0.00301 0.14956 
-0.11209 -0.23324 0.04663 
-0.12342 0.28321 -0.14873 
0.14775 -0.21112 -0.10374 
-0.06954 0.03839 0.07824 
-0.12339 0.24124 -0.16237 
0.15111 -0.15694 -0.0054 
0.12531 0.19569 -0.09093 
-0.13156 0.41985 0.02404 
-0.13691 0.19477 -0.01716 
0.15159 -0.32368 0.02199 
0.10755 0.32513 -0.0803 
0.15722 -0.18517 -0.07256 
0.15047 -0.35272 0.01063 
-0.15801 -0.25355 -0.09093 
-0.03981 -0.38536 0.04615 
0.07978 -0.10742 0.13434 
0.12339 0.24124 -0.16237 
0.15866 -0.35756 -0.01969 
0.10398 0.32961 -0.04168 
-0.13905 -0.10442 -0.02839 
-0.16309 0.24121 -0.16237 
0.12342 0.28321 -0.14873 
-0.11738 -0.32667 -0.12654 
-0.10332 0.08485 -0.01982 
0.16643 0.23719 -0.13241 
-0.12531 0.19569 -0.09093 
0.13182 -0.14286 -0.0707 
-0.16593 0.25506 -0.13346 
0.10202 -0.32084 -0.0083 
-0.10602 0.37252 0.06507 
-0.14179 -0.2931 0.04791 
0.12952 -0.42307 -0.06177 
-0.10755 0.15167 -0.10374 
0.14093 -0.39381 0.02517 
0.12536 0.25137 -0.04651 
-0.13905 -0.10968 -0.05928 
0.09326 0.03467 0.05432 
-0.10755 0.26283 -0.01537 
0.07705 -0.41842 0.01949 
0.09954 -0.15933 0.02475 
0.06967 0.38751 0.11966 
0.16303 0.16973 -0.09093 
-0.10332 0.19228 0.0657 
-0.07714 -0.34484 0.04951 
0.10948 -0.4048 -0.00273 
-0.07714 -0.2981 0.05515 
-0.1488 -0.38192 -0.07912 
-0.14093 -0.39381 0.02517 
0.15967 -0.35247 -0.13026 
0.15666 0.33912 0.03829 
0.15949 0.149 0.02183 
-0.05474 -0.11118 0.13617 
0.16579 0.22243 -0.0857 
-0.15796 -0.31215 -0.0484 
0.15502 0.33747 -0.10098 
0.14819 -0.3809 0.00091 
-0.1534 0.40901 0.0389 
0.10202 -0.38181 -0.10374 
0.16012 0.4246 -0.04109 
0.12142 0.15279 0.11966 
-0.1676 0.17754 -0.07025 
-0.06967 -0.39147 -0.10374 
0.06967 0.44079 -0.0492 
0.15513 -0.32041 -0.15888 
-0.08057 0.24011 -0.01982 
0.10948 -0.39676 0.02181 
0.12051 0.02967 0.11966 
0.14342 -0.36782 0.03204 
0.08585 -0.05397 0.14355 
0.1155 -0.23035 -0.113 
-0 0.33506 -0.1024 
0.10398 0.2305 -0.02394 
-0.03172 0.08485 -0.01982 
0.15684 -0.1948 0.02006 
0.10436 0.08485 -0.01982 
-0.13773 -0.41319 -0.00273 
-0.15794 -0.34305 -0.09093 
-0.16204 0.24723 -0.10994 
-0.10587 -0.16251 -0.01742 
-0.1155 -0.23035 -0.113 
0.09987 -0.16549 -0.00695 
0.07852 0.24011 -0.01982 
-0.07238 -0.05848 0.14516 
-0.13691 0.16027 -0.04943 
-0.15266 -0.29269 0.02491 
-0.12538 0.28228 -0.11069 
-0.16126 0.00808 -0.04369 
-0.13905 -0.03785 -0.06038 
0.15371 0.12039 -0.09666 
0.07627 0.16773 0.15182 
0.05474 -0.11118 0.13617 
0.02496 0.07453 0.16159 
0.11741 -0.28814 -0.13534 
-0.16385 0.31946 -0.01672 
0.12385 0.01522 -0.01662 
-0.08712 0.16786 0.15141 
-0.12723 0.42136 -0.02804 
0.11738 -0.32667 -0.05531 
0.00187 0.07288 -0.05235 
0.16758 0.26283 -0.01537 
0.14179 -0.2931 0.04791 
0.15286 0.40848 0.04095 
0.15936 -0.04865 0.02086 
-0 0.1364 0.15397 
0.15792 -0.2983 -0.07548 
-0.13591 0.02967 0.08807 
-0.13905 0.03169 0.06206 
0.03497 0.16338 -0.02147 
-0.0263 0.24011 -0.01982 
-0.13711 0.21082 0.08807 
0.11545 -0.29827 -0.01948 
-0.12333 0.16976 -0.09093 
-0.1366 0.13444 0.08807 
-0.1107 -0.04841 0.13305 
0.07852 0.31864 -0.02147 
0.12385 -0.10968 -0.05928 
0.03981 -0.38536 0.04615 
0.04283 -0.14475 0.01226 
-0.13327 -0.38181 -0.10374 
0.08516 0.07452 0.15808 
0.14851 -0.14976 -0.03883 
0.03583 -0.41028 0.02068 
-0 -0.34945 0.05241 
-0 0.25872 0.15397 
-0.15799 -0.28445 -0.0484 
-0.02077 -0.09232 0.14374 
0.13156 0.41985 0.02404 
-0.0263 0.31864 -0.02147 
-0.00084 0.22813 -0.05235 
0.10347 -0.16516 0.08807 
-0.15976 0.37905 0.01969 
-0.05161 -0.42462 0.01361 
-0.15515 -0.2983 -0.01948 
0.10699 -0.42785 -0.02804 
0.11548 -0.2563 -0.14873 
0.15526 -0.38105 -0.04896 
-0.11741 -0.28814 -0.13534 
0.12932 0.42104 -0.00435 
0.15852 -0.25682 -0.09493 
0.15796 -0.31215 -0.0484 
0.10202 -0.27209 -0.0083 
-0.08709 -0.40912 -0.01389 
-0.10846 0.02456 0.08755 
0.15769 0.00962 -0.07595 
0.12344 0.30916 -0.113 
-0.16581 0.22505 -0.12964 
-0.16762 0.20184 -0.14506 
0.11422 -0.13771 0.01442 
-0.11713 -0.08446 0.12334 
-0.10948 -0.41964 -0.00273 
0.15204 0.17727 0.05088 
0.15156 0.02967 0.04744 
0.11954 0.37701 0.11966 
-0.12336 0.19922 -0.14873 
0.06186 -0.1545 -0.00459 
0.16594 0.26752 -0.1271 
0.10782 -0.23324 0.04663 
-0.14837 -0.19358 0.04994 
-0.03981 -0.4303 -0.09356 
-0.0263 0.34754 0.0657 
0.08211 -0.4308 -0.08622 
-0.03172 0.19228 0.0657 
0.06967 0.42971 -0.09356 
-0.15081 0.22523 0.05633 
0.04368 -0.15386 -0.07133 
-0.03235 -0.21071 0.05527 
-0.11482 -0.0977 -0.02674 
-0 -0.21196 0.05559 
0.10657 0.16338 -0.02147 
0.07484 0.27997 0.15247 
-0 -0.11528 0.13799 
-0.15967 -0.35247 -0.13026 
-0.10587 -0.17638 0.04733 
-0.13569 -0.00374 0.08807 
-0.03981 -0.30022 0.0559 
0.05434 0.02456 0.08755 
-0.1659 0.22736 -0.0484 
-0.10948 -0.39676 0.02181 
0.02374 -0.0977 -0.02674 
0.11543 -0.32038 -0.15888 
-0.10602 0.22813 -0.05235 
-0.14519 -0.38667 -0.00273 
-0.11843 0.4369 -0.0492 
-0.08961 -0.25156 0.05543 
-0.10202 -0.3618 -0.03472 
-0.03894 -0.03785 -0.06038 
-0.15769 0.00962 -0.07595 
-0.13663 0.42525 -0.09356 
0.15063 -0.17978 -0.09801 
0.00138 0.19984 -0.00191 
-0.16012 0.41403 -0.02804 
-0.10846 0.04279 0.06803 
-0.10202 -0.32084 -0.0083 
0.14271 -0.40846 -0.07849 
-0.16014 0.15386 -0.0803 
-0.11738 -0.32667 -0.05531 
0.04728 0.25516 0.15176 
0.16125 0.26599 0.01292 
-0.07978 -0.10742 0.13434 
0.16203 0.24723 -0.07191 
0.02425 0.34754 0.0657 
0.00138 0.1861 -0.0307 
-0.16582 0.25998 -0.0857 
-0.14271 -0.40846 -0.07849 
-0.15936 -0.0194 0.02086 
-0.00084 0.28388 -0.05352 
-0.10846 0.00532 0.06898 
0.14016 0.07288 -0.05235 
-0.16164 0.37342 -0.01298 
0.15794 -0.34087 -0.07711 
0.12385 -0.01917 -0.02839 
-0.11446 -0.20193 0.05401 
0.16061 -0.19389 -0.01607 
-0.10755 0.1945 -0.0246 
0.14016 0.16338 -0.02147 
-0.13913 -0.14397 0.07633 
0.08926 0.42413 0.01383 
0.02374 0.01522 -0.01662 
0.05434 0.00532 0.06898 
-0.16313 -0.27209 -0.0083 
0.06987 -0.12961 0.01287 
-0.10699 -0.42785 -0.02804 
-0.13608 -0.14286 -0.0707 
-0.02622 0.23637 0.16235 
-0.06954 0.03115 0.05159 
-0.13691 0.07288 -0.05235 
0.1677 0.30815 -0.09093 
0.1154 -0.3561 -0.13292 
-0 -0.3873 0.04717 
-0.0901 -0.081 0.13852 
-0.07714 -0.17087 0.08807 
0.10755 0.1945 -0.0246 
-0.00381 -0.44182 -0.05987 
0.12538 0.28228 -0.07116 
0.10202 -0.23113 -0.03472 
0.00138 0.21595 0.06716 
0.12342 0.2832 -0.03312 
-0 0.38836 0.11966 
0.14837 -0.19358 0.04994 
0.03981 -0.34789 0.05112 
0.07852 0.34754 0.0657 
0.09326 0.01344 0.08269 
-0.12952 -0.42307 -0.06177 
0.03497 0.19228 0.0657 
0.12731 -0.15548 0.08807 
-0.10271 -0.42238 -0.05927 
-0.01247 -0.13856 -0.00439 
0.00187 0.16027 -0.04943 
0.02374 -0.10968 -0.05928 
-0 -0.41028 -0.02368 
-0.11744 -0.25723 -0.11069 
0.02374 -0.02229 -0.05635 
-0.15788 -0.30477 -0.13204 
-0.0479 -0.16541 -0.01742 
-0.12154 0.16875 0.11966 
-0.16261 0.33865 -0.04084 
-0 -0.30131 0.05743 
-0.11549 -0.2405 -0.04893 
0.14874 0.01045 -0.10374 
-0.15048 -0.21109 -0.09803 
-0.16747 0.21616 -0.01537 
0.01951 -0.14465 0.02402 
-0.10755 0.3168 -0.05828 
0.02077 -0.06669 0.14868 
0.10482 -0.10321 0.13022 
-0.11737 -0.34383 -0.09093 
-0.1485 -0.40661 -0.05415 
-0 0.37446 0.14623 
-0.14955 -0.14285 0.0481 
0.09206 -0.20688 0.05401 
-0.16682 0.17607 -0.03925 
0.12679 -0.11624 0.10469 
-0.16497 0.3168 -0.05828 
0.13663 0.42525 -0.09356 
0.11744 -0.25723 -0.11069 
0.12532 0.21284 -0.12654 
0.09155 -0.14069 0.00209 
-0 -0.2565 0.06002 
0.14016 0.19778 -0.00969 
-0.04977 0.14037 0.15176 
0.15975 -0.2442 -0.13026 
-0.16589 0.205 -0.06464 
-0.06352 -0.42568 -0.01916 
-0.14984 -0.32936 0.03017 
-0 -0.20423 -0.10339 
-0.15976 -0.2347 -0.1116 
-0.15063 -0.17978 -0.09801 
-0.00084 0.31552 -0.04943 
-0.06954 0.00723 0.06353 
0.07713 -0.2981 0.05515 
0.05898 0.42584 -0.02759 
-0.15217 -0.39222 -0.02804 
-0.08585 0.01292 0.14592 
0.1646 0.16219 -0.05828 
-0.15153 -0.15123 -0.03196 
-0.0846 -0.43086 -0.04307 
-0.15684 -0.1948 0.02006 
-0.12344 0.30916 -0.113 
-0.16202 0.22381 -0.1009 
0.06967 0.3713 0.14496 
0.1502 0.15167 -0.10374 
0.10398 0.35304 -0.00969 
-0.00121 0.34754 0.0657 
-0.15763 0.41403 -0.00154 
-0 0.15167 -0.10274 
-0.10587 -0.17019 0.01842 
0.15521 0.41511 0.01266 
0.08532 0.04616 0.15092 
0.16102 -0.32084 -0.0083 
0.06179 0.42308 0.00922 
0.11744 -0.25723 -0.07116 
-0.15874 0.17612 0.0144 
0.10755 0.15167 -0.10374 
0.16645 0.26806 -0.05827 
-0.15721 -0.18517 -0.07256 
0.10398 0.22813 -0.05235 
-0 0.40409 0.08807 
0.1371 0.21082 0.08807 
0.15788 -0.21101 -0.07912 
-0.15681 0.00945 0.02867 
-0.12174 0.19647 0.11966 
-0 -0.3975 -0.10374 
-0.10699 -0.4261 -0.08622 
0.05723 -0.24318 0.04687 
-0.03894 -0.0977 -0.02674 
0.03822 -0.42485 -0.05927 
0.11741 -0.28814 -0.04651 
0.11548 -0.25631 -0.03312 
-0.02165 -0.43021 -0.00937 
-0.12334 0.18341 -0.04893 
-0.04728 0.25516 0.15176 
0.16769 0.29531 -0.0516 
0.16188 0.00808 -0.01815 
0.10271 -0.42238 -0.05927 
0.15788 -0.30477 -0.13204 
0.10948 -0.34234 0.04367 
-0.11482 -0.01917 -0.02839 
-0.15143 -0.00891 0.04657 
0.07556 0.22385 0.15214 
0.10699 -0.4261 -0.08622 
-0.12342 0.2832 -0.03312 
0.16582 0.25772 -0.10127 
-0.03108 -0.15386 0.04687 
0.06353 -0.43686 -0.0598 
-0.15047 -0.35272 0.01063 
0.11655 -0.17623 0.04618 
-0.13691 0.12863 -0.05352 
0.1485 -0.40661 -0.05415 
-0.06967 0.3713 0.14496 
-0 -0.44013 -0.0332 
-0 -0.17543 0.08807 
0.16429 -0.22495 -0.02911 
-0.16061 -0.19389 -0.01607 
-0.06179 0.42308 0.00922 
0.03608 -0.25534 0.0591 
0.12385 -0.05393 -0.06045 
0.12536 0.25137 -0.13534 
0.12385 -0.02229 -0.05635 
-0.00121 0.23133 -0.02302 
-0.16363 -0.21752 -0.04163 
-0.10587 -0.15106 -0.07087 
0.14167 -0.22088 0.04622 
0.11904 -0.20171 0.04733 
-0.08803 -0.22163 0.05866 
-0.12124 0.12817 0.11966 
0.00138 0.07607 -0.02302 
-0.08057 0.34754 0.0657 
-0.12536 0.25137 -0.13534 
-0.15437 -0.37506 -0.05547 
-0.15502 0.33747 -0.10098 
0.12532 0.21284 -0.05531 
-0.05311 0.42336 -0.02327 
-0.1541 -0.2809 -0.1009 
-0.15371 0.12039 -0.09666 
0.13327 -0.38181 -0.10374 
0.10948 -0.29615 0.05038 
0.13297 0.41059 0.05648 
-0.11548 -0.2563 -0.14873 
0.08585 0.01292 0.14592 
0.05335 -0.14122 0.04204 
0.10755 0.26283 -0.01537 
-0 -0.43801 -0.08622 
0.16164 0.37342 -0.01298 
0.11542 -0.3403 -0.03313 
-0.03981 -0.39546 -0.10374 
0.15143 -0.00891 0.04657 
-0.06163 -0.43708 -0.0598 
-0.1658 0.23608 -0.07216 
-0.15076 -0.32989 -0.11247 
-0.15791 -0.30609 -0.10431 
-0.11744 -0.25723 -0.07116 
0.15791 -0.31175 -0.09865 
0.15081 -0.26671 -0.06938 
0.15785 -0.33703 -0.10709 
0.15763 0.41403 -0.01754 
0.02257 -0.43991 -0.04667 
-0.03981 -0.41602 0.03548 
-0.10347 -0.16516 0.08807 
0.07713 -0.17087 0.08807 
-0.15787 -0.28789 -0.07448 
-0.1619 0.1266 -0.04438 
0.05434 0.02355 0.04946 
-0.16018 -0.191 -0.04252 
0.02298 -0.14208 -0.00811 
-0.16188 0.00808 -0.01815 
-0.10846 0.02355 0.04946 
-0.13691 0.16338 -0.02147 
-0.13691 0.19228 0.0657 
0.16142 0.35584 0.00899 
0.15662 0.19984 0.03678 
-0.16092 0.35348 0.01611 
-0.10602 0.28388 -0.05352 
0.14016 0.19371 0.06772 
0.1051 0.1554 0.14247 
0.16035 0.14159 -0.07708 
0.1619 0.1266 -0.04438 
0.16018 -0.191 -0.04252 
0.16126 0.00808 -0.04369 
