ply
format ascii 1.0
comment VCGLIB generated
element vertex 493
property float x
property float y
property float z
element face 0
property list uchar int vertex_indices
end_header
0.14555 -0.37978 -0.09473 
0.06294 -0.05594 0.0607 
-0.05094 -0.08115 0.00522 
-0.15982 0.31774 -0.11185 
0.11954 0.30663 -0.10887 
-0.12121 -0.31459 -0.08187 
0.11273 0.25585 0.1546 
-0.15718 -0.21826 -0.12523 
0.18673 -0.20394 0.0664 
-0.15697 0.31508 -0.0137 
0.15543 -0.32533 -0.09445 
-0.16519 -0.20877 0.04358 
0.15543 0.2888 -0.08141 
0.11968 -0.02625 0.1499 
-0.05919 -0.06992 0.06456 
0.15537 -0.29987 0.0058 
0.15672 -0.07739 0.0478 
-0.16084 0.26779 -0.04878 
0.11954 -0.32508 -0.15687 
-0.14128 0.36799 0.08748 
-0.10381 -0.05981 0.07812 
0.13048 -0.038 0.13312 
0.15982 0.31774 -0.11185 
-0.03901 -0.21719 0.06048 
0.09617 -0.40724 -0.04918 
-0.15617 0.15206 0.04147 
-0.11423 -0.37968 -0.12696 
0.11168 -0.25662 0.07038 
-0.13659 -0.04867 0.12143 
0.049 -0.06022 0.0441 
0.14918 0.17989 -0.13186 
0.03972 -0.09405 -0.0409 
0.15022 -0.03494 0.07317 
-0.1488 0.39201 0.01228 
-0.12121 -0.2679 -0.18288 
0.09385 -0.39319 -0.02525 
-0.08596 -0.30146 0.03367 
-0.05249 -0.06589 0.14969 
-0.11147 0.36132 0.13682 
-0.11586 0.17015 0.15352 
0 -0.32334 0.04192 
-0.1393 -0.31525 0.01711 
0.12091 0.35003 0.14391 
0.15793 0.01789 0.04052 
0.03477 -0.21719 0.00717 
-0.05401 -0.36978 0.00336 
0.00094 -0.06992 0.06456 
-0.12121 0.2888 -0.08141 
0.11954 -0.21826 -0.12523 
-0.03592 0.41312 -0.02882 
0.0163 -0.08023 0.00505 
0.18684 -0.21217 0.04222 
-0.07334 0.41607 -0.11906 
0.15493 0.28375 0.02388 
-0.03125 -0.41202 -0.05191 
-0.15546 -0.06193 0.05659 
-0.15787 -0.26745 0.015 
-0.11402 0.4101 -0.12043 
-0.13386 -0.10986 0.13015 
0.15787 -0.26745 0.015 
0.15543 -0.33196 -0.14183 
-0.11339 -0.36148 -0.00187 
0.13296 -0.00985 0.13264 
0.11954 0.27526 -0.17819 
0.15992 0.3135 -0.08594 
-0.10706 -0.40446 -0.11401 
-0.18684 -0.21217 0.04222 
0.00013 0.41277 -0.05143 
0.15414 -0.22808 0.03342 
-0.16197 -0.28664 -0.01551 
0.08171 -0.30146 0.00717 
0.10329 -0.06575 0.17357 
0.0148 -0.0756 -0.04634 
0.15543 0.27526 -0.17819 
0.03293 -0.11315 0.14773 
0.15983 -0.3189 -0.02099 
0.00874 -0.021 -0.01608 
0.12763 -0.12455 0.1349 
-0.03901 -0.21719 0.00717 
-0.08352 -0.3962 -0.03049 
-0.06863 -0.26738 0.07189 
-0.05123 -0.05174 0.05162 
0.15361 0.38603 -0.04388 
-0.1508 -0.34847 -0.01411 
-0.06065 -0.31514 0.041 
-0.15353 -0.32698 -0.00442 
-0.16189 -0.02942 -0.00987 
-0.13606 -0.2777 0.04214 
-0.12121 -0.22762 -0.09386 
-0.15718 0.28915 -0.16921 
0.15751 0.11278 0.02517 
-0.15718 0.19522 -0.10954 
0.12044 -0.0761 0.04733 
0.16197 -0.28664 -0.01551 
-0.16074 -0.34326 -0.09657 
0 -0.35307 0.02358 
0.11586 0.17015 0.15352 
-0.12846 -0.08245 0.13915 
-0.14918 0.17989 -0.13186 
-0.11746 0.0859 0.15197 
0.0802 -0.0596 0.15821 
0.0657 0.40688 -0.02083 
-0.16117 -0.02985 0.02517 
-0.16013 -0.31078 -0.03766 
0.10619 -0.37734 -0.01053 
0.08436 -0.0947 -0.04254 
-0.12682 -0.33956 0.00862 
0.15546 0.35679 -0.01297 
-0.06691 -0.0295 0.07248 
0 0.29046 0.1587 
0.11954 -0.2849 -0.06808 
0.07886 0.27171 0.15716 
-0.04487 -0.07094 0.1786 
0.15399 0.34113 0.02212 
0.16189 -0.02942 -0.00987 
-0.15445 -0.0265 -0.13202 
-0.13089 -0.39631 -0.09503 
0 -0.21893 0.10152 
-0.14555 -0.37978 -0.09473 
0.16239 -0.02914 -0.03372 
-0.15667 -0.00622 0.04535 
0.16117 -0.02985 0.02517 
0.04282 -0.08538 0.00328 
-0.03325 -0.41819 -0.07799 
0.00938 -0.05249 0.04986 
0.13233 0.15383 0.13651 
-0.2005 -0.20391 0.06443 
0.14193 0.32217 -0.13746 
0.09176 -0.08435 0.18292 
0.12682 -0.33956 0.00862 
0.11142 -0.07046 -0.00923 
-0.15546 0.35679 -0.01297 
0.15543 0.25895 -0.06798 
0.15401 0.16469 0.0561 
0.067 -0.41152 -0.11864 
0.15667 0.3217 -0.01387 
0.07184 -0.021 -0.01608 
0.13882 -0.35732 -0.00695 
0.15543 -0.25204 -0.17819 
0.07345 0.41326 -0.09823 
0.10706 -0.40446 -0.11401 
0.06846 -0.14289 0.13812 
-0.15729 0.20793 0.02517 
0.1613 0.24036 -0.04865 
0.10605 0.3654 0.13066 
0.15385 0.38371 -0.01238 
0.0324 -0.40187 -0.03166 
0.15615 0.38093 -0.08349 
0.1634 -0.21443 -0.08582 
-0.15615 0.38093 -0.08349 
0.10968 -0.10226 0.1589 
-0.12807 0.39299 0.04944 
-0.06763 -0.4051 -0.12506 
-0.1527 -0.01597 0.06614 
0.14251 0.39992 -0.08368 
-0.16416 -0.22258 -0.07308 
0 -0.40621 -0.03023 
0.15543 -0.22736 -0.15668 
-0.01541 -0.06408 0.15132 
0.12493 -0.4032 -0.06622 
-0.12121 -0.23816 -0.16921 
-0.01562 0.4102 -0.00085 
-0.15724 -0.33317 -0.04598 
-0.16259 -0.25247 -0.01184 
0.12317 0.38094 0.09033 
-0.16291 -0.29854 -0.05391 
0.163 -0.22301 -0.01286 
0.11954 0.2888 -0.08141 
0.01562 0.4102 -0.00085 
-0.15812 -0.20851 -0.14583 
0.06065 -0.31514 0.041 
0.15543 -0.28444 -0.18292 
0.15819 0.17529 -0.05392 
-0.03553 -0.41637 -0.09869 
-0.12317 0.38094 0.09033 
-0.15718 0.25895 -0.06798 
0.11954 -0.22762 -0.09386 
-0.04487 -0.09428 0.17532 
-0.11105 -0.10191 0.15788 
-0.1371 -0.37079 -0.01978 
-0.14298 0.398 -0.0988 
-0.13109 0.35623 0.12619 
0.16368 -0.25224 -0.05418 
-0.12121 0.28915 -0.16921 
-0.10794 -0.38972 -0.02224 
0.15494 0.17549 -0.09984 
-0.11475 0.41516 -0.09912 
0.08372 0.40183 0.02807 
-0.15011 -0.21842 0.06054 
0.04644 -0.06589 0.14969 
-0.12493 -0.4032 -0.06622 
-0.1478 -0.36321 -0.04837 
0.01183 -0.09474 0.14892 
0.1609 -0.06902 0.02382 
-0.13685 -0.15236 0.11651 
0 0.41817 -0.11993 
-0.1735 -0.21882 0.06488 
-0.12121 -0.32508 -0.15687 
0.15821 0.22647 -0.01387 
-0.15718 -0.30032 -0.17828 
-0.12121 0.30663 -0.10887 
-0.11423 -0.08186 -0.00923 
-0.14644 0.39824 -0.0302 
0.15411 0.26694 0.04027 
-0.15355 0.37357 -0.11406 
0.13089 -0.39631 -0.09503 
-0.14145 -0.23794 0.06508 
-0.03007 -0.31327 0.03958 
0.12807 0.39299 0.04944 
0.12485 -0.37985 -0.01948 
0.11062 0.30875 0.15389 
0.11954 0.20198 -0.09445 
0.11954 0.20223 -0.15687 
-0.15494 0.17549 -0.09984 
-0.14733 -0.03494 0.07317 
-0.15718 -0.26836 -0.06798 
0.11954 -0.2679 -0.18288 
0.11954 0.22699 -0.17828 
-0.115 -0.3293 0.02261 
0.15 0.37842 0.04166 
0.10508 -0.14381 0.13596 
0.08504 -0.05733 0.09444 
0.11954 0.25895 -0.06798 
-0.0657 0.40688 -0.02083 
-0.02048 -0.07031 0.06404 
-0.12121 0.19299 -0.12546 
-0.15914 0.00348 0.02517 
-0.15335 -0.34649 -0.12499 
0.04433 0.283 0.15816 
-0.15992 0.3135 -0.08594 
0.00135 -0.41836 -0.07885 
0.10742 -0.06495 0.06155 
-0.15718 -0.23816 -0.16921 
-0.12768 0.40107 -0.05593 
0.14338 0.39933 -0.05528 
-0.15841 -0.23876 0.01797 
0.13091 -0.07713 0.0016 
0.15543 0.24287 -0.18292 
-0.0005 -0.05664 0.0937 
0.10623 -0.30359 0.04083 
-0.08368 -0.06688 0.14892 
0.1393 -0.31525 0.01711 
-0.1124 -0.20415 0.10219 
-0.16273 -0.19223 -0.10282 
0.16084 0.26779 -0.04878 
0.10723 -0.06181 0.154 
0.15477 -0.34617 -0.02695 
-0.09617 -0.40724 -0.04918 
0.0407 -0.063 0.1699 
-0.03196 -0.14132 0.13882 
-0.08528 0.34701 0.15746 
-0.15718 0.2888 -0.08141 
-0.12121 -0.25247 -0.07255 
-0.06846 -0.14289 0.13812 
0.15355 -0.36462 -0.07174 
0.00051 -0.41677 -0.10104 
-0.16437 -0.19638 -0.07294 
-0.12121 -0.33431 -0.12546 
-0.15998 -0.20377 0.01917 
0.13718 -0.20127 0.0933 
-0.16304 -0.32264 -0.06485 
0.00012 0.4122 -0.02919 
-0.12121 0.24287 -0.18292 
-0.11168 -0.25662 0.07038 
-0.08061 -0.05565 0.06106 
0.12513 -0.15127 0.12933 
0.13379 0.40327 -0.11064 
-0.06974 -0.2119 0.10307 
0.15445 -0.0265 -0.13202 
-0.15718 0.24287 -0.18292 
0.15857 0.26803 -0.01387 
0.07334 0.41607 -0.11906 
-0.14985 -0.25308 0.04301 
-0.1609 -0.06902 0.02382 
-0.02027 -0.06397 0.09519 
0.11142 -0.07818 -0.04483 
-0.14686 -0.37914 -0.0706 
-0.15718 -0.22762 -0.09386 
0.14864 0.38612 -0.11276 
-0.15485 0.28243 0.02517 
-0.09348 -0.08435 0.18292 
0 -0.27579 0.07266 
0.08473 -0.05957 0.04573 
-0.138 0.16437 0.12054 
-0.10342 -0.06734 0.17532 
0.15914 0.00348 0.02517 
-0.14963 0.26487 0.05784 
0 -0.38312 0.00095 
-0.1613 0.24036 -0.04865 
0.15543 0.20198 -0.09445 
-0.15824 0.2005 -0.0137 
-0.1102 -0.05998 0.05327 
-0.15793 0.01789 0.04052 
-0.15857 0.26782 -0.0137 
0 -0.13905 0.1384 
-0.15818 0.17529 -0.05392 
0.12826 0.40151 -0.0227 
0.07184 -0.038 0.14854 
0.00821 -0.06378 0.15164 
-0.15385 0.38371 -0.01238 
-0.11235 -0.06374 0.00167 
-0.07886 0.27171 0.15674 
0.16381 -0.21636 0.05129 
0.11954 -0.31459 -0.08187 
-0.16239 -0.02914 -0.03372 
0.15873 0.34092 -0.0416 
0.04777 -0.38225 -0.00515 
0.1525 -0.05812 0.06608 
0 0.36059 0.15989 
0.15993 0.19506 -0.0711 
0.08479 -0.07135 0.06305 
-0.09174 -0.38145 -0.01076 
0.14887 -0.2091 -0.12765 
-0.15718 -0.2679 -0.18288 
-0.04135 -0.06714 0.07961 
0.0802 -0.10202 0.15821 
0.1197 -0.07742 0.14527 
0.15807 0.13307 0.02517 
0.14128 0.3693 0.08748 
0.16412 -0.22945 -0.06621 
-0.14193 0.32217 -0.13746 
-0.12121 -0.2849 -0.06808 
0.07846 -0.0295 0.07248 
-0.15718 0.30676 -0.14161 
0.15543 -0.26836 -0.06798 
-0.15718 0.22657 -0.07284 
0.11142 -0.09098 -0.02335 
0.11475 0.41516 -0.09912 
-0.05441 -0.03239 0.12999 
0.15829 0.17502 -0.01386 
-0.15873 0.34092 -0.0416 
-0.03925 -0.0497 0.09169 
-0.15858 -0.02846 -0.1021 
-0.1415 0.39479 -0.07907 
-0.06142 -0.06381 0.09456 
-0.13319 0.25729 0.12229 
-0.13455 -0.1335 0.12551 
0.1124 -0.20415 0.10219 
-0.08368 -0.10191 0.15788 
0.15735 0.17468 0.02517 
-0.15718 0.21307 -0.16936 
-0.1075 -0.06326 0.15219 
0.13621 -0.38248 -0.04886 
0.20293 -0.20022 0.05521 
-0.15401 0.32866 0.02517 
-0.10623 -0.30359 0.04083 
-0.12121 0.25895 -0.06798 
0.11746 0.0859 0.15197 
0.15543 0.29994 -0.15668 
-0.15103 0.39272 -0.05265 
0.15998 -0.20377 0.01917 
-0.16117 0.21361 -0.05583 
-0.15401 -0.36607 -0.11163 
0.11954 -0.25247 -0.07255 
0.14851 -0.20741 0.071 
-0.02037 -0.05166 0.07646 
0.16299 -0.31189 -0.05831 
-0.12121 0.21307 -0.16936 
0.13021 -0.16887 0.11715 
0.0407 -0.10159 0.16403 
-0.15 0.37842 0.04166 
0.06606 -0.04984 0.09069 
-0.15537 -0.29987 0.0058 
0.13319 0.25729 0.12229 
-0.05435 -0.038 0.15013 
0.11954 -0.30032 -0.17828 
0.03181 -0.41782 -0.06609 
0.1488 0.39201 0.01228 
0.02582 -0.31327 0.03958 
0 0.41392 -0.10035 
0 0.09347 0.1554 
-0.12121 -0.21826 -0.12523 
0.13109 0.35839 0.12619 
-0.12121 -0.30032 -0.17828 
-0.15828 0.17502 -0.0137 
0.11954 0.29994 -0.15668 
0.15872 -0.34521 -0.113 
0.15858 -0.02846 -0.1021 
-0.05842 0.36641 0.1382 
-0.11423 -0.08399 -0.0466 
0.13178 -0.23498 0.00717 
0.03477 -0.21719 0.06048 
-0.11659 0.40111 0.00445 
-0.04433 0.283 0.15809 
0.03754 -0.41732 -0.10084 
-0.15697 0.17455 0.04023 
0.1527 -0.01597 0.06614 
-0.15993 0.19506 -0.0711 
0.115 -0.3293 0.02261 
0.11142 -0.37968 -0.12696 
-0.15718 -0.33196 -0.14183 
0.11954 -0.23816 -0.16921 
0.03681 0.41146 -0.03038 
0.15726 0.21076 0.02389 
0.16273 -0.19223 -0.10282 
0.15401 -0.36607 -0.11163 
0.08455 -0.0863 0.00346 
0.0407 -0.08435 0.18292 
-0.15848 0.2232 -0.02563 
0.05842 0.36641 0.1382 
-0.12999 -0.21114 -0.14858 
-0.05435 -0.021 -0.01608 
-0.15807 0.13307 0.02517 
0 0.40662 0.03477 
0.16145 -0.23906 -0.03587 
0.00874 -0.038 0.14998 
-0.07345 0.41326 -0.09823 
-0.12118 0.25452 0.14585 
0 0.37106 0.13942 
0.14145 -0.23794 0.06508 
-0.11423 -0.03214 -0.02063 
0 -0.01782 0.15335 
-0.12776 -0.04275 0.13971 
0.15543 0.20223 -0.15687 
-0.03606 0.41383 -0.05115 
-0.11906 -0.14379 0.13391 
0.12902 -0.09405 -0.0409 
0.13044 0.40068 -0.00131 
-0.12121 0.22657 -0.07284 
-0.13718 -0.20127 0.0933 
0 0.19138 0.15705 
-0.16144 -0.23906 -0.03587 
0.15543 -0.31424 -0.16936 
-0.15718 0.19535 -0.14183 
0.11954 -0.33431 -0.12546 
0 -0.4138 -0.05052 
-0.15599 0.24848 0.02517 
-0.15798 0.09444 0.02517 
0.16117 0.21361 -0.05583 
-0.12121 0.30676 -0.14161 
0.1478 -0.36321 -0.04837 
0.15543 0.22657 -0.07284 
0.15825 0.2003 -0.01387 
0.1312 -0.38154 -0.12435 
-0.13621 -0.38248 -0.04886 
0.11954 0.19299 -0.12546 
-0.1607 0.28989 -0.05519 
-0.11062 0.30875 0.15389 
-0.12121 0.20198 -0.09445 
0.15746 0.23406 0.01338 
0.11954 0.22657 -0.07284 
-0.07161 0.40319 0.02479 
0.13606 -0.2777 0.04214 
0.15812 -0.20851 -0.14583 
0.16304 -0.286 -0.05166 
-0.16409 -0.23865 -0.05989 
0.10103 -0.35795 0.00627 
-0.05237 0.3551 0.15964 
-0.13602 -0.23498 0.00717 
0 -0.41224 -0.12442 
0.15667 -0.00622 0.04535 
-0.13292 0.4 -0.12112 
0.06974 -0.2119 0.10307 
0.06596 -0.07254 0.14819 
0.11402 0.4101 -0.12043 
0.08171 -0.30146 0.03367 
-0.0324 -0.40187 -0.03166 
0.05237 0.3551 0.15964 
-0.1613 -0.27341 -0.03682 
0.15648 0.17539 -0.07798 
-0.13751 -0.02009 0.11761 
0.14985 -0.25308 0.04301 
0.12999 -0.21114 -0.14858 
-0.15567 -0.35046 -0.06428 
-0.07161 0.40502 0.00481 
0.11142 0.39298 -0.00923 
-0.05062 -0.08532 -0.05213 
-0.08596 -0.30146 0.00717 
0.009 -0.0295 0.07248 
-0.163 -0.22301 -0.01286 
-0.0139 -0.09474 0.14892 
0.08528 0.34701 0.15746 
0.03196 -0.14132 0.13882 
0.15724 -0.33317 -0.04598 
0.03561 0.41169 -0.05082 
-0.07597 -0.11591 0.14552 
0.16067 0.29805 -0.06055 
0.0833 0.404 0.00472 
0.16259 -0.25247 -0.01184 
0.06863 -0.26738 0.07189 
-0.15648 0.17539 -0.07798 
0.16437 -0.19638 -0.07294 
0.10398 -0.05164 0.09069 
0.06372 -0.06724 0.07862 
-0.0804 -0.04931 0.09221 
-0.0805 -0.06795 0.07978 
0.15543 -0.22068 -0.10887 
-0.03293 -0.11315 0.14773 
-0.10644 0.34393 0.15342 
-0.11968 -0.02625 0.1499 
0.16089 -0.2118 -0.0348 
-0.16089 -0.2118 -0.0348 
-0.05953 -0.05248 0.07663 
