ply
format ascii 1.0
comment VCGLIB generated
element vertex 650
property float x
property float y
property float z
element face 0
property list uchar int vertex_indices
end_header
-0.11976 -0.17467 0.03366 
-0.15121 0.15838 -0.09449 
0.13613 0.09724 -0.05959 
0.08215 -0.40834 -0.08403 
-0.07349 0.40787 0.05046 
-0.04598 0.30174 0.133 
0.0316 0.17539 0.14092 
-0.1372 -0.19216 -0.02478 
-0.0672 -0.10386 0.02096 
0.15292 0.07172 -0.08079 
-0.13993 -0.158 -0.06445 
0.16281 -0.2745 -0.00953 
-0.04195 -0.17824 -0.05229 
-0.06803 0.0408 0.03391 
0.11465 0.02424 -0.00934 
0.0631 -0.14113 0.04143 
0.04968 -0.37411 -0.09917 
0.11116 0.33175 0.10621 
0.15233 0.09605 0.03181 
0.12044 0.25023 -0.04008 
0.11177 -0.17381 0.03516 
0.09499 0.40467 -0.06004 
-0.11528 -0.26135 0.02982 
-0.08537 -0.34637 0.02101 
-0.12302 0.26366 0.09063 
-0.09939 0.00014 0.01343 
-0.1076 0.2766 0.11924 
0.15078 0.33728 0.02379 
-0.15589 0.2263 -0.14253 
-0.03964 0.16831 -0.01515 
-0.00012 0.27676 0.05136 
-0.11117 0.18449 0.11712 
-0.12125 -0.24656 -0.11781 
-0.12852 0.30994 0.075 
0.09799 0.27229 0.05112 
0.12302 0.26366 0.09063 
0.119 -0.03009 0.10671 
-0.08198 -0.4074 -0.08403 
-0.03262 -0.43969 -0.04812 
-0.07658 0.40512 -0.07193 
0.10007 0.36014 0.0933 
0.04458 -0.17596 -0.00883 
-0.11247 -0.01555 0.1174 
0.15536 0.35374 -0.02252 
-0.15869 0.09546 0.00952 
-0.0898 -0.22668 0.03743 
0.15634 -0.34873 -0.08274 
-0 0.16379 0.14152 
-0.11288 -0.40402 -0.00865 
0.15579 0.28903 0.01535 
-0.05555 -0.09414 0.04981 
0.01622 0.13343 0.14102 
-0.15248 0.31375 0.02256 
-0.15509 0.34846 -0.0058 
-0.02172 -0.40668 -0.0796 
0.13605 -0.19216 -0.02478 
0.04974 -0.06888 0.11655 
0.07607 0.08222 -0.05724 
-0.01589 0.20214 0.14118 
0.1559 0.29062 -0.11025 
-0.08839 0.21953 0.02115 
-0.01654 -0.00238 0.13429 
0.03252 0.34433 0.11973 
-0.14397 0.3141 -0.08625 
-0.15098 -0.18 0.02881 
0.12383 0.23623 -0.14334 
-0.13331 0.06132 -0.017 
-0.12125 0.24893 -0.12024 
0.13313 -0.17128 -0.05273 
0.15925 0.27995 -0.07493 
0.04083 0.37417 0.09394 
-0.07125 -0.05964 -0.06755 
0.01654 -0.00238 0.13429 
0.07875 -0.21321 0.04829 
0.0467 0.22269 0.13644 
0 0.18171 0.02311 
-0.16075 -0.10825 -0.04034 
0.15985 -0.16435 -0.10003 
-0.15589 -0.25509 -0.14253 
0.12044 0.27827 -0.06811 
0.09434 0.32672 0.05236 
-0.11489 0.07607 0.11386 
0.03474 -0.1184 0.09292 
0.1559 0.24616 -0.14253 
-0.13937 0.09635 -0.07951 
-0.09655 0.19887 0.07491 
0.15094 0.02768 0.03493 
0.15832 -0.24612 -0.04557 
-0.08683 0.3141 -0.08644 
0.13155 -0.06067 0.01966 
-0.03836 -0.41141 -0.0322 
0.13927 -0.04406 0.06027 
0.08799 0.20927 0.08456 
0.06487 -0.3218 0.02688 
0.15122 -0.36312 -0.00407 
-0.1576 -0.28932 -0.11531 
0.06819 0.02441 -0.00927 
-0.10888 0.22107 0.11806 
0.03314 -0.03519 0.125 
0.04177 -0.05964 -0.04632 
0.15163 0.13445 0.0331 
0.07052 -0.09661 -0.04153 
-0.12125 0.22323 -0.04308 
-0.14738 0.24099 -0.06107 
0.0358 -0.21447 0.04412 
-0.0467 0.22269 0.14027 
0.04853 -0.0006 0.13377 
0.08042 0.22595 0.14083 
-0.00276 -0.21986 0.04242 
0.15795 0.24733 0.00593 
0.13769 0.34908 0.05276 
-0.08313 0.43415 -0.05707 
-0.11901 0.41742 0.01636 
-0.16131 0.02322 -0.01867 
-0.13269 -0.06067 0.01966 
0.13057 -0.08192 0.08629 
0.10304 -0.09661 -0.03836 
0 0.16736 -0.02567 
-0.11214 -0.1738 -0.05258 
-0.12187 -0.06295 0.10063 
0.11016 -0.13656 0.03741 
-0.04879 -0.15502 0.01202 
0.15915 -0.35118 -0.03861 
-0.11335 0.32702 0.10623 
-0.09489 0.08821 0.13739 
0.01448 -0.25532 0.03828 
-0.13959 -0.39502 -0.02911 
-0.12571 0.16108 0.0874 
-0.05457 -0.11691 0.09244 
-0.12125 0.21194 -0.11531 
0.09939 0.00014 0.01343 
-0.07052 -0.09661 -0.04153 
-0.13807 0.34131 -0.06721 
-0.1563 -0.14564 0.02329 
0.083 -0.26695 -0.00108 
0.083 -0.23252 -0.00691 
-0.03964 0.13483 -0.02472 
-0.02876 -0.25477 0.03798 
0.1559 -0.20692 -0.10146 
0.03964 0.17501 0.00398 
-0.13671 -0.15181 0.05281 
0.06341 -0.17899 0.03904 
0.02996 0.07656 -0.07979 
-0 0.03015 0.13489 
0.12108 0.08031 -0.03428 
0.04778 0.43849 -0.04806 
0.14274 -0.39034 -0.02224 
0.03654 0.42318 -0.01978 
0.15864 -0.33037 -0.01268 
-0.15752 -0.11917 -0.07292 
-0.15929 0.28895 -0.09967 
-0.12359 -0.15502 -0.00061 
0.13593 0.14523 -0.06171 
-0.08802 -0.0953 0.04375 
0.08716 0.04161 0.0773 
0.15969 0.13375 -0.0047 
0.04977 -0.35115 0.02207 
0.01416 0.21358 0.07783 
-0.01969 0.38239 0.05399 
0.17107 -0.11071 0.06023 
-0.12231 0.13483 -0.02472 
0.03243 -0.43645 -0.07663 
0.16165 -0.02576 -0.00926 
0 -0.17884 -0.05224 
-0.14007 -0.31666 0.01963 
-0.15552 -0.36992 -0.04544 
-0.12383 0.18682 -0.04596 
-0.0799 -0.3707 -0.09918 
-0.04925 -0.03343 0.12098 
0.15076 -0.12676 0.03651 
0.16083 0.10416 -0.03767 
0.12247 0.19893 0.05564 
0.13066 -0.00348 0.08104 
0.0816 -0.02741 0.11968 
-0.1118 -0.05964 -0.06755 
-0.14001 -0.05459 0.05906 
-0.08629 -0.27797 0.03253 
0.15121 0.15838 -0.09449 
0.01895 -0.12994 -0.02779 
-0.12813 0.10176 0.02674 
0.12484 -0.23671 0.03137 
0 -0.13228 0.0447 
0.05816 0.23336 0.04607 
0.12617 0.20138 0.00934 
-0.16 0.06578 -0.03723 
-0.15589 -0.22173 -0.1254 
-0.10885 0.04063 0.03385 
0.12045 -0.3688 0.01014 
-0.12125 -0.24612 -0.04557 
-0.01837 -0.13014 -0.02732 
-0.11377 0.11105 0.11494 
0.02039 0.01091 -0.04399 
-0.09207 0.08222 -0.05724 
-0.06819 0.02441 -0.00927 
-0.13608 -0.06048 -0.02056 
-0.03053 -0.08953 0.03039 
0.06904 0.01091 -0.04399 
0.04668 0.38259 -0.05998 
-0.15985 -0.16435 -0.10003 
0.15925 -0.24467 -0.12146 
0.02002 0.08126 -0.04576 
0.15267 -0.09137 0.03025 
0.02996 0.14679 -0.07979 
-0.083 -0.34629 -0.05895 
-0.15181 0.16095 -0.05787 
-0.09546 0.32717 0.05245 
0.13783 0.24271 -0.06645 
0.13392 0.13483 -0.02472 
-0.06709 0.23336 0.05181 
-0.013 -0.40342 -0.0084 
-0.06549 0.20919 0.0849 
-0.07893 0.35156 0.10748 
0.11497 0.00035 0.11575 
-0.12383 -0.20692 -0.10146 
0.1168 -0.35112 -0.01706 
-0.08247 -0.0272 0.12345 
-0.10607 0.16831 -0.01515 
-0.09207 0.12431 -0.0228 
-0.02008 -0.17888 0.04083 
0.12044 0.21008 -0.11786 
0.07251 0.38259 -0.08508 
0.14785 0.40698 -0.02137 
-0.0218 -0.06116 0.10156 
-0.02939 -0.07751 -0.07979 
-0.06487 -0.32174 0.02689 
-0.13955 0.00781 -0.07951 
0.11243 0.03567 0.11649 
-0.1393 0.05188 -0.07951 
0.01407 -0.08964 -0.04411 
-0.02039 0.01091 -0.04399 
0.16075 -0.10825 -0.04034 
0.05322 0.33245 0.0526 
0.04944 0.31754 -0.05998 
-0.12421 -0.21542 0.03444 
0.13783 -0.24809 -0.08211 
0.13027 -0.40212 -0.08319 
0.08683 0.15838 -0.09468 
0.12239 0.41699 -0.07225 
0.04819 0.08074 0.13934 
-0.00057 0.21451 0.0083 
-0.03276 0.03091 0.13822 
0.07607 0.18171 0.02311 
-0.04725 0.43704 -0.05695 
0.02862 0.41244 -0.05889 
0.08683 0.30222 -0.02724 
0.11531 -0.06188 0.10709 
0 0.12431 -0.0228 
0.14369 0.31232 0.04467 
0.15276 -0.21917 0.02239 
0.07035 0.01742 0.04189 
0.15291 -0.16653 0.02817 
0.1076 0.2766 0.11924 
-0.12388 -0.39509 -0.06299 
-0.04348 -0.43252 -0.08407 
-0.15589 -0.32545 -0.09204 
0.15227 -0.25251 0.0201 
-0.02358 -0.3199 0.02758 
-0.03808 0.01664 0.04119 
-0.15112 0.3849 -0.04633 
-0.03535 -0.1428 0.08047 
-0.07737 -0.1256 -0.0033 
0.03964 0.09657 -0.02376 
0.15925 0.23623 -0.03782 
-0.11889 0.01623 0.10744 
-0.14719 -0.08657 0.03922 
-0.16225 -0.14278 -0.04457 
0.083 -0.20076 -0.02817 
-0.12731 0.20138 0.00934 
-0.13746 0.28645 0.05506 
-0.11973 -0.01027 -0.01925 
-0.14631 -0.26505 -0.08211 
0.15925 -0.22299 -0.06811 
-0.06791 0.18185 0.13946 
-0.02064 0.21307 0.07695 
-0.083 -0.26695 -0.00108 
-0.12125 -0.27803 -0.04308 
0.11345 -0.4023 -0.00568 
-0.02544 0.41273 -0.06081 
-0.0897 0.31638 0.12987 
0.16195 -0.15001 0.00164 
-0.1576 -0.29242 -0.05472 
0.07251 0.31754 -0.08508 
0.12383 -0.26502 -0.14334 
-0.12383 -0.28438 -0.14021 
0.08884 0.17314 -0.02765 
0.14714 0.33271 -0.08896 
0.12383 0.29434 -0.10146 
-0.09253 0.37354 0.0535 
0.03964 0.19032 0.03937 
0.09222 -0.11169 0.0909 
-0.11807 0.36835 0.07544 
0.08993 -0.43097 -0.04611 
0.01813 0.40272 0.05453 
-1e-05 -0.42611 -0.03149 
0.02996 -0.00727 -0.07979 
-0.05223 0.04161 0.07712 
-0.1541 -0.36273 -0.08143 
-0.01679 -0.03619 0.12501 
-0.11586 0.39652 -0.05897 
0.09705 -0.05964 -0.04632 
0.12044 0.19252 -0.0893 
0.14635 0.37284 0.02895 
0.07125 -0.01487 -0.06755 
-0.02363 0.02435 -0.00929 
0.02996 -0.13501 -0.07372 
-0.12814 0.1398 0.0376 
0.12491 0.21393 0.08901 
-0.03964 0.18171 0.02311 
-0.08227 -0.17989 -0.08977 
0.15294 0.06271 0.03062 
-0.13643 0.08106 0.0666 
0.16003 0.04875 -0.03753 
-0 -0.18084 -0.09168 
0.10885 0.04063 0.03385 
-0.12125 0.27641 -0.08211 
0.08062 -0.41019 -0.00302 
0.11904 -0.01323 -0.01674 
0.02996 -0.07751 -0.07979 
0.15621 0.17713 -0.02251 
0.095 -0.01487 -0.04396 
-0.07052 -0.01105 -0.02095 
-0.08042 0.22595 0.14083 
-0.0594 0.33318 0.12686 
0.08869 -0.2482 0.03545 
-0.09684 0.04588 0.13409 
-0.09838 0.27261 0.05117 
-0.09298 -0.12938 0.03804 
-0.08829 0.12981 0.14286 
-0.16007 0.06096 0.00367 
-0.15969 0.13375 -0.0047 
-0.15621 0.17713 -0.02251 
0.12044 -0.2102 -0.09112 
0.08104 0.18366 0.14084 
-0.09928 -0.16277 0.06386 
-0.12383 0.17813 -0.10146 
0.08683 0.27316 -0.00373 
0.08533 -0.28643 0.03147 
0.13643 0.08106 0.0666 
0.083 -0.29909 -0.00749 
-0.02795 0.34353 0.11512 
0.0568 -0.25254 0.03614 
-0.01847 0.14842 -0.04988 
-0.15127 0.27157 0.03015 
0.12383 0.27239 -0.13152 
0.02832 -0.43883 -0.04206 
-0.02939 -0.00727 -0.07979 
0.06314 -0.15464 0.00742 
-0.16047 0.03607 -0.04973 
0.15832 -0.28932 -0.04892 
-0.04328 0.39177 0.07408 
-0.16223 -0.15165 -0.01292 
-0.03566 0.42696 -0.02823 
-0.12291 0.22571 0.05564 
0.11995 -0.23576 -0.1221 
0.1613 0.14396 -0.03902 
-0.0578 -0.19832 0.03814 
-0.15651 0.25822 0.00144 
-0.14056 -0.02557 -0.07951 
0.13493 -0.06048 -0.02056 
-0.02215 0.41655 0.04516 
-0.0309 0.26971 0.13879 
-0.05846 0.08222 -0.05724 
0.15492 -0.29904 0.01033 
0.12133 0.29741 0.09163 
0.12044 0.21868 -0.02939 
0.03964 0.13483 -0.02472 
-0.03585 0.33356 0.0527 
0.15159 -0.01144 0.03334 
0.1243 -0.2035 0.04087 
0.05553 0.21711 0.08173 
-0.03746 -0.35219 0.02199 
-0.16038 -0.04482 -0.03919 
-0.18605 -0.10502 0.03808 
0.1112 -0.36298 -0.09911 
0.14007 -0.10465 -0.08153 
-0.15709 -0.06092 -0.07234 
0.083 -0.32792 -0.02644 
0.05337 0.27568 0.05124 
-0.16066 -0.00776 -0.05042 
0.15301 -0.38179 -0.05474 
0.16225 -0.14278 -0.04457 
0.07125 -0.05964 -0.06755 
-0.01989 0.37555 0.09412 
-0.01622 0.13343 0.14102 
-0.13312 0.19696 0.07111 
0 0.43194 -0.06744 
-0.14343 -0.00854 0.04868 
0.12141 0.1192 0.10023 
0.09541 0.3721 0.05336 
0.12158 -0.27496 0.02767 
0.15846 0.32053 -0.02343 
0.02002 0.23336 0.05181 
-0.16119 -0.18822 -0.00273 
-0.1292 0.06648 0.025 
-0.05781 -0.23106 0.03859 
-0.07125 -0.01487 -0.06755 
-0.12108 0.19032 0.03937 
-0 0.24833 0.1393 
0.06958 0.35437 0.10753 
-0.12383 -0.31443 -0.11827 
0.1559 0.2081 -0.1365 
0 -0.35552 -0.09914 
-0.10995 -0.10775 -0.04897 
0.10082 0.22705 0.05006 
-0.16329 -0.29605 -0.01566 
-0.03262 -0.0017 0.01547 
-0.1576 0.20715 -0.1112 
-0.04605 -0.38595 0.01294 
0.1605 0.06081 -0.00139 
0.11117 0.18449 0.11712 
-0.04853 -0.0006 0.13377 
0.07607 0.09657 -0.02376 
0.02449 0.00071 0.01282 
-0.0909 -0.11194 0.09096 
-0.02939 -0.14962 -0.06726 
0.12197 -0.25278 -0.04535 
0.15894 0.02548 -0.06044 
-0.07532 -0.13935 0.07924 
0.06823 0.42537 -0.01186 
-0.15714 -0.02238 0.02034 
-0.15242 0.23326 0.02862 
0.16178 -0.17425 -0.03154 
0.10982 0.22108 0.11806 
0.02363 0.02435 -0.00929 
0.08537 -0.34637 0.02101 
-0.14329 -0.37716 0.00059 
0.08652 0.26762 0.14309 
0.13861 0.40548 0.0167 
-0.12741 -0.3558 -0.09906 
0.06503 0.42515 0.0212 
0.05727 0.02748 0.07807 
-0.15506 -0.21723 0.02026 
-0.08826 -0.07839 0.01081 
0.02159 0.30901 0.122 
0.15778 0.12651 -0.08077 
-0.13062 -0.11099 0.0777 
0.15677 0.2447 -0.10943 
-0.08162 0.27099 0.14139 
-0.09125 -0.37767 0.0101 
0.08047 0.00473 0.13249 
0.16282 -0.2413 -0.00932 
0.08683 0.23607 0.00406 
-0.1604 -0.1922 -0.08095 
-0.13512 0.2018 -0.08211 
0.15299 0.35805 -0.06459 
0.14827 0.03047 -0.09828 
0.083 -0.18168 -0.09407 
0.16191 -0.09741 -0.00608 
-0.08683 0.2564 0.00202 
-0.15929 0.23623 -0.02656 
-0.15589 0.26437 -0.1365 
-0.1574 0.33019 -0.04411 
-0.03773 -0.01381 -0.01757 
0.08486 -0.37943 0.01083 
-0.03762 -0.05443 -0.03921 
0.1014 0.41943 0.03004 
-0.09092 -0.17366 -0.00902 
-0.12249 -0.34946 0.01548 
-0.15094 0.02768 0.03493 
-0.15929 0.27198 -0.05596 
0.03596 -0.17056 0.06618 
0.16021 -0.01268 -0.03861 
-0.01641 0.07943 0.14014 
0.083 -0.34788 -0.0946 
0.07607 0.13483 -0.02472 
-0.13897 0.33073 0.05202 
0.10182 0.42144 -0.00254 
0.07522 0.42851 -0.08226 
0.05612 0.30196 0.13638 
0.15832 -0.27803 -0.12115 
-0.08683 0.31281 -0.04905 
0.16038 0.0069 0.0069 
-0.16092 0.03044 -0.0924 
-0.02939 -0.18718 -0.00724 
-0.15422 0.29517 -0.02028 
-0.07659 0.4244 -0.01962 
-0.07495 0.42431 0.0165 
-0.16329 -0.26322 -0.0089 
-0.16245 -0.18435 -0.04491 
0.04302 0.03496 0.04664 
0.06512 -0.41047 -0.03368 
-0.02002 0.08222 -0.05724 
-0.11371 0.43013 -0.02668 
-0.02002 0.23336 0.05181 
0.15738 0.20684 -0.00182 
0.10607 0.17501 0.00398 
0.13486 -0.29203 -0.07093 
0.04324 -0.40548 -0.07967 
0.12874 0.03172 0.08279 
-0.083 -0.23252 -0.00691 
-0.10869 -0.30201 0.02561 
0.14861 0.16603 0.03997 
0.12383 0.18185 -0.05398 
0.03773 -0.01381 -0.01757 
-0.06259 -0.4038 -0.0095 
0.15112 0.3849 -0.04633 
-0.15353 0.16208 0.02704 
-0.10602 0.15016 0.11969 
0.0178 -0.06387 0.09524 
0.13522 0.1321 0.06856 
0 -0.36762 0.01843 
-0.1601 -0.33003 -0.06009 
-0.12801 0.12494 0.08605 
0.15816 -0.1868 -0.07205 
0.02996 -0.16389 -0.05753 
0.05801 0.13506 0.13974 
0.04605 -0.38595 0.01294 
-0.16329 -0.22327 -0.01191 
-0.15637 -0.34841 -0.0158 
-0.06604 -0.16465 0.04361 
-0 -0.09533 0.10534 
-0.13471 0.37015 -0.08113 
-0.12125 -0.30616 -0.08211 
0.13773 -0.0231 -0.06049 
0.15832 -0.30406 -0.09512 
-0.13114 -0.01758 0.08 
-0.03899 0.27618 0.05128 
-0.12383 0.28564 -0.04596 
0.15952 -0.06712 -0.06165 
0.09463 0.10253 0.13711 
-0.1576 -0.22443 -0.08879 
0.02663 0.31754 -0.08257 
-0.09219 -0.06408 0.11377 
-0.05846 0.09657 -0.02376 
-0.1032 -0.42725 -0.04604 
0.01868 0.33424 0.0528 
0.15965 0.18921 -0.09778 
-0.08683 0.19781 -0.00605 
-0.05969 -0.07496 -0.00403 
0.04703 -0.41957 -0.00709 
-0.01416 -0.15445 0.00972 
0.16345 -0.18822 0.00025 
-0.11769 0.01091 -0.04399 
-0.15738 0.20684 -0.00182 
-0.13349 -0.1138 0.01763 
0.02358 -0.3199 0.02758 
-0.05773 -0.06801 0.11601 
-0.16004 0.12647 -0.03616 
0.12571 0.16108 0.0874 
-0.08683 0.15838 -0.09468 
0.05257 -0.14174 0.08005 
0.15937 0.26914 -0.03714 
0.11865 -0.15573 0.06237 
-0.08975 -0.19243 0.04995 
-0.14309 0.40116 -0.07616 
-0.01134 0.31099 0.11879 
-0.02002 0.09657 -0.02376 
0.15683 0.31196 -0.06362 
-0.05206 -0.35257 -0.09914 
0.12197 -0.28932 -0.11531 
0.08241 -0.06491 0.11455 
-0.12383 -0.20692 -0.06276 
-0.09207 0.18171 0.02311 
-0.11669 -0.41575 -0.08754 
-0.15275 -0.25251 0.0201 
-0.14127 0.36287 0.04407 
-0.15051 -0.11914 0.04772 
0.14196 0.27268 0.04993 
-0.07607 0.1664 -0.0362 
0.09132 0.03815 0.14094 
-0.13269 0.09933 -0.01606 
0.11458 -0.32707 0.02098 
0.09206 0.13821 0.14128 
0.15654 -0.05714 -0.09825 
0.08872 -0.17345 -0.009 
0.12512 -0.15445 0.00092 
-0.095 -0.01487 -0.04396 
0.13078 0.37757 -0.07874 
0.11769 0.01091 -0.04399 
0.04872 0.0323 0.13402 
-0.02939 -0.11746 -0.07806 
-0.15929 -0.22928 -0.05596 
-0.01835 -0.08767 -0.04716 
-0.01765 -0.11915 0.09306 
-0.1576 -0.25835 -0.04152 
0.12383 -0.32545 -0.09204 
-0.09258 0.02867 0.06774 
0.10151 0.30918 0.12699 
0.11238 0.15162 0.11617 
-0.16191 -0.09741 -0.00608 
-0.03262 0.42116 0.01295 
0.04372 0.38088 0.05384 
0.11489 0.07607 0.11386 
0.12481 -0.4173 -0.04663 
0.12383 -0.21561 -0.04596 
-0.08683 0.29404 -0.0179 
-0.05864 0.08178 0.13897 
-0.12978 0.04044 0.08311 
-0.14758 0.38285 0.01902 
0.13571 -0.11123 0.07143 
-0.11465 0.02424 -0.00934 
-0.12036 -0.31 -0.0492 
0.12383 -0.31941 -0.05398 
-0.12794 -0.23584 -0.08014 
0.13392 0.23336 0.05181 
0.156 0.22357 -0.08528 
-0.083 -0.29909 -0.00749 
-0.16153 -0.00881 -0.00877 
-0.1609 0.12651 -0.09354 
-0.02486 -0.37604 -0.09915 
0.0309 0.26971 0.13879 
0.07444 0.38755 0.07437 
0.01792 -0.14333 0.0807 
-0.12437 0.42828 -0.05716 
0.12989 0.42752 -0.04062 
-0.05486 -0.41045 -0.06161 
0.16027 0.0953 -0.00579 
-0.13818 -0.28357 0.02458 
-0.04927 -0.29189 0.02896 
-0.01816 -0.28885 0.0366 
0.04162 -0.2832 0.03552 
0.03243 0.42116 0.01295 
0.01155 -0.41337 -0.06161 
-0.06599 -0.43557 -0.04415 
-0.1576 0.21194 -0.04892 
-0.14689 0.40337 -0.01803 
-0.12383 0.25559 -0.02401 
-0.14738 0.24471 -0.10195 
-0.12383 0.28564 -0.11827 
0.11995 -0.2878 -0.03809 
0.16245 -0.21238 -0.02918 
0.15937 -0.31791 -0.0645 
0.1559 0.17813 -0.06276 
0.1454 0.20884 -0.05472 
-0.083 -0.32792 -0.02644 
0.158 0.17721 0.01088 
0.083 -0.34629 -0.05895 
0 0.43245 -0.03518 
0.08207 0.43591 -0.04767 
0.04683 0.41477 0.04592 
-0.1168 -0.35112 -0.01706 
-0.13903 -0.39282 -0.09475 
0.08683 0.16114 -0.05787 
0.07445 0.32895 0.12694 
-0.09495 0.01276 0.13373 
0.03964 0.1664 -0.0362 
0.08872 -0.17543 -0.05245 
-0.1113 0.39962 0.05196 
-0.03415 -0.09382 0.10536 
0.07607 0.19893 0.05564 
0.13486 0.26321 -0.09329 
0 0.41881 0.02043 
0.12427 0.39404 0.05232 
-0.083 -0.19529 -0.03506 
0.10607 0.11379 -0.0228 
-0.09442 0.14523 -0.06179 
0.15062 0.20361 0.03506 
-0.05019 -0.12523 0.04001 
-0 -0.17142 0.06656 
0 -0.43403 -0.08405 
