ply
format ascii 1.0
comment VCGLIB generated
element vertex 771
property float x
property float y
property float z
element face 0
property list uchar int vertex_indices
end_header
-0.13365 -0.34033 0.00605 
0.16897 0.33452 -0.15332 
0.17422 0.2358 -0.13161 
-0.1759 -0.33583 -0.13163 
0.07251 0.0485 0.13471 
-0.15652 0.38457 -0.10081 
0.18261 -0.08288 -0.05257 
0.18379 0.2761 -0.11964 
-0.18287 -0.203 -0.04979 
0.05089 0.41266 -0.06018 
0.09432 0.33629 0.08268 
-0.16213 -0.38231 -0.05492 
-0.0324 0.41122 -0.03771 
0.05054 -0.39958 -0.0177 
0.08419 0.39184 0.0241 
-0.17965 0.0227 0.00692 
0.13665 -0.06121 0.09574 
-0.17478 -0.36204 -0.07176 
0.06394 0.36492 0.05364 
0.14197 0.27198 -0.16381 
-0.03164 -0.41369 -0.04347 
0.10512 -0.40066 -0.08948 
0.13365 -0.34033 0.00605 
0.12588 -0.38996 -0.04606 
0.13157 0.40878 -0.05098 
0.12836 0.15897 0.11711 
0.03079 -0.22209 0.04314 
0.10084 -0.04918 0.1183 
-0.16551 -0.11137 0.03589 
-0.14889 -0.30772 -0.06302 
-0.17422 0.3545 -0.12372 
0.16805 -0.25751 0.01378 
0.16897 0.23121 -0.09699 
-0.13982 0.27857 -0.10452 
-0.13973 -0.07773 0.08915 
-0.04844 0.40027 -0.00444 
-0.18409 -0.29649 -0.15273 
0.13049 -0.04238 0.11178 
0.18111 0.34635 -0.03333 
0.18151 0.24658 -0.00443 
0.14889 0.23768 -0.07294 
-0.13982 0.30738 -0.11166 
0.14889 -0.2491 -0.04083 
0.07212 -0.04045 0.12163 
-0.18409 0.35384 -0.09132 
-0.17797 -0.26162 -0.09128 
0 0.32574 0.09705 
-0.13988 -0.25972 -0.12101 
0 0.37444 0.04642 
0.17873 -0.23017 -0.00286 
0.19509 -0.10902 0.02686 
-0.04716 0.35547 0.06707 
0.13916 0.05676 0.09899 
-0.1772 0.3592 -0.03076 
-0.01119 -0.41095 -0.03161 
-0.18467 0.33157 -0.08527 
-0.18338 0.27765 -0.07615 
0.13988 -0.32847 -0.06675 
-0.12023 0.38216 0.03419 
-0.17838 -0.31235 -0.0211 
0.09382 0.41331 -0.0913 
0.18409 0.24893 -0.06167 
0.18392 -0.28631 -0.12894 
-0.14385 -0.24708 -0.14168 
-0.14385 0.3288 -0.08665 
-0.14152 0.34846 0.05869 
0.04844 0.3961 0.01397 
0.11499 0.31518 0.09582 
0.16324 0.22744 0.04619 
-0.15756 0.37709 0.01758 
-0.02391 0.17059 0.13687 
-0.14889 -0.2491 -0.04083 
0.06146 -0.14428 0.07851 
-0.04456 0.30204 0.12478 
0.1805 -0.18378 -0.10695 
-0.13988 -0.27524 -0.10277 
0.12767 0.05592 0.12051 
-0.11498 0.36144 0.0539 
0.12904 0.22985 0.11305 
-0.1822 0.20984 -0.05032 
-0.04445 -0.22774 0.04006 
0.1842 0.20581 -0.05021 
-0.04108 0.1394 0.1374 
0.04108 0.04903 0.13546 
-0.10683 -0.36598 -0.00288 
0.17411 -0.36262 -0.08198 
-0.17926 -0.14487 -0.10695 
0.13994 0.27571 -0.04797 
0.13994 -0.30101 -0.10195 
-0.1849 0.32438 -0.15431 
0.16897 -0.31574 -0.13309 
-0.16042 0.23389 0.05165 
-0.1758 0.25747 0.02127 
0 0.40649 -0.09992 
0.14081 -0.20762 0.03972 
-0.1395 0.30794 0.08045 
-0.18287 -0.25733 -0.02702 
0.17835 0.00012 0.01038 
-0.14197 -0.21613 0.03409 
0.17275 0.36168 0.00084 
0.14402 0.33324 -0.15433 
0.10024 -0.40641 -0.0352 
-0.14197 -0.31596 -0.13139 
-0.14197 0.27198 -0.16381 
-0.14984 0.08337 0.07722 
-0.14197 -0.2201 -0.05366 
0.15787 -0.18313 0.05129 
-0.14063 0.24858 -0.06134 
-0.18392 0.26161 -0.11049 
0.11603 -0.39301 -0.02469 
0.09098 0.13821 0.13644 
0.16639 0.27689 -0.08514 
0.16299 0.38312 -0.01123 
0.18409 -0.21362 -0.14616 
-0.13863 -0.36725 -0.03949 
0.09202 -0.18698 0.05579 
-0.18094 -0.12141 -0.11055 
-0.03136 -0.24501 0.02616 
0.15954 -0.34644 -0.00933 
0.13994 0.31762 -0.07265 
-0.14889 0.34037 -0.1478 
0.1102 0.40046 -0.0182 
0.1849 -0.20764 -0.07468 
0.1793 0.21303 -0.11472 
0.16038 0.0609 0.05418 
0.14889 -0.30929 -0.14327 
0.14152 0.34846 0.05869 
0.18338 0.30988 -0.0697 
0.04108 0.25054 0.13259 
0.04108 0.20146 0.13546 
0.18392 -0.28398 -0.07218 
-0.01305 -0.30279 0.02181 
0.17715 -0.33242 -0.03303 
-0.18414 0.27598 -0.02027 
0.14385 -0.27203 -0.14107 
-0.12924 0.15897 0.11711 
-0.1819 -0.34291 -0.09468 
0.03136 -0.24818 0.02528 
0.18278 0.15607 -0.10453 
0.14402 0.30064 -0.16773 
0.15371 -0.1017 0.06003 
-0.11232 -0.05391 0.11581 
0 -0.28418 0.02644 
0.16046 0.25925 0.04783 
0.17422 0.35709 -0.11196 
0.16694 -0.37678 -0.0548 
-0.18409 0.28112 -0.16445 
0.1803 0.30079 -0.10707 
-0.18392 0.32393 -0.12556 
-0.18357 -0.20541 -0.01797 
-0.07964 -0.24531 0.02582 
0.17797 -0.23418 -0.12681 
-0.13994 -0.29745 -0.11199 
0 0.40358 -0.0175 
0.18409 -0.24946 -0.04321 
0.15887 -0.31414 0.00824 
-0.13994 0.31212 -0.13909 
0.13988 -0.2278 -0.03273 
-0.16112 0.33124 0.04271 
0 -0.25349 0.03333 
0.18463 -0.21372 -0.04038 
0.14063 -0.22095 -0.05477 
-0.15627 0.39805 -0.03101 
-0.04108 -0.01145 0.12833 
-0.09422 0.31003 0.10644 
0 0.356 0.0683 
0.07964 -0.32586 0.01404 
0.18261 -0.18966 -0.02982 
0.18238 0.16385 -0.04261 
-0.18392 -0.28947 -0.07739 
0.11701 0.07546 0.133 
-0.16897 0.23606 -0.07608 
0.12017 0.4069 -0.09623 
0.15553 -0.36875 -0.0248 
-0.12964 0.08963 0.11711 
0.18287 -0.27052 -0.02768 
-0.18238 0.16385 -0.04261 
0.13994 0.31212 -0.13909 
0.18409 0.35175 -0.08387 
0.122 0.2605 0.1207 
0.02342 0.37413 0.04642 
0.14197 0.3493 -0.13454 
-0.02391 -0.16795 0.06827 
-0.18338 -0.26556 -0.06634 
-0.1659 -0.37727 -0.11447 
0.10367 0.37847 -0.09458 
-0.1785 0.23101 0.00615 
0.14385 0.27272 -0.07079 
0.14197 0.25341 -0.05495 
-0.02265 0.2931 0.12759 
-0.05825 0.07722 0.13687 
0.09255 -0.11467 0.09066 
-0.07973 -0.40389 -0.10141 
0.0275 -0.40047 -0.0177 
-0.09098 0.10404 0.13667 
-0.13994 -0.21992 -0.0959 
-0.16668 -0.30832 -0.14251 
-0.08419 0.39184 0.0241 
0.13994 -0.22215 -0.08879 
0.05496 -0.11591 0.09118 
-0.05422 -0.25161 0.03333 
-0.17422 0.25005 -0.05719 
0.15922 -0.19467 -0.10442 
0.13994 -0.29377 -0.12789 
-0.17422 -0.27159 -0.16681 
0.08561 -0.16555 0.06671 
-0.16865 0.38611 -0.05051 
-0.07964 -0.32586 0.01404 
-0.17938 0.04866 -0.09921 
0.13994 0.28557 -0.1429 
0.16351 -0.2203 0.03659 
0.10751 0.105 0.13564 
-0.10482 0.39914 -0.0155 
0.12023 0.36757 0.04642 
0.15041 -0.14605 0.06626 
0.16587 0.39153 -0.04233 
-0.14889 -0.19604 -0.09082 
-0.13982 0.28877 -0.02575 
0.14402 0.22998 -0.09685 
0.12977 -0.37093 -0.00876 
-0.17715 0.04996 0.01571 
0.18196 -0.25564 -0.11711 
0.18409 0.28349 -0.04335 
-0.17533 -0.26331 -0.11428 
0.02391 -0.033 0.12437 
-0.18392 -0.29342 -0.12688 
0 -0.39176 -0.01119 
0.1435 -0.26257 -0.06561 
0.16218 -0.28816 -0.10601 
-0.17363 -0.15918 0.01825 
0.17926 -0.14487 -0.10695 
0.16897 -0.32125 -0.1088 
-0.12576 0.39315 0.00199 
0.15082 0.35523 -0.08691 
0.16897 -0.31976 -0.08506 
-0.14197 0.27433 -0.04361 
0.16897 -0.28185 -0.04446 
0.16638 -0.117 0.03375 
-0.11309 0.29405 0.1144 
-0.16897 -0.20676 -0.14159 
-0.12231 -0.01296 0.12516 
0.00977 -0.40554 -0.04031 
-0.16046 0.25925 0.04783 
-0.13994 -0.27213 -0.14134 
0.17838 -0.31235 -0.0211 
0.15009 -0.25246 0.03079 
-0.11701 0.07546 0.133 
0.12427 0.33091 0.07859 
-0.14197 0.24588 -0.14603 
-0.06117 -0.28702 0.0247 
-0.17515 -0.35671 -0.12107 
0.12188 -0.39551 -0.13163 
-0.16639 0.28591 -0.12854 
-0.16897 -0.29837 -0.0555 
-0.13994 -0.29322 -0.08483 
0.17891 -0.26201 -0.00616 
0.18338 0.2528 -0.11217 
-0.01305 -0.35581 0.00608 
-0.18136 -0.10096 0.05163 
-0.18392 -0.23777 -0.08785 
-0.06948 -0.22583 0.03769 
0.1321 0.29595 0.09443 
-0.14197 0.23296 -0.08521 
0.1811 0.25862 -0.08749 
-0.18164 0.2158 -0.08985 
0.14385 -0.23679 -0.07144 
-0.09382 0.39915 -0.10155 
0.12475 0.34466 -0.10445 
-0.02391 0.26816 0.13098 
-0.17833 0.31062 -0.00768 
-0.18392 -0.21709 -0.104 
0.12231 -0.01296 0.12516 
-0.1775 0.10256 0.0186 
-0.14197 -0.30072 -0.15167 
0.17422 0.30708 -0.04155 
0.18392 0.33384 -0.11139 
0.17985 0.28037 -0.00679 
-0.1435 0.25564 -0.11181 
0.15763 0.32222 -0.04687 
-0.16897 0.34901 -0.07212 
-0.1803 0.30079 -0.10707 
-0.16306 0.31367 -0.12174 
0.17955 -0.34765 -0.06404 
0.18409 -0.29336 -0.15501 
0.1009 0.17021 0.13526 
-0.1205 0.41284 -0.03884 
0.12467 0.31568 -0.10875 
-0.16897 0.27038 -0.04446 
-0.02738 -0.40674 -0.1032 
-0.18338 -0.22647 -0.13029 
0.1766 0.36701 -0.04299 
-0.14889 -0.32125 -0.1088 
-0.14402 -0.20676 -0.14159 
-0.0305 -0.40418 -0.07188 
0.07295 -0.40172 -0.04165 
0.00659 0.39879 0.01059 
0.05532 0.40649 -0.09992 
-0.13241 -0.14627 0.07344 
-0.16897 0.25502 -0.15365 
-0.05532 0.41208 -0.09623 
0.18392 0.28827 -0.14271 
-0.16897 -0.19588 -0.10281 
-0.07688 -0.01142 0.12808 
-0.14091 0.25569 0.08933 
0.16897 0.25117 -0.15206 
-0.14253 -0.39572 -0.11447 
0.1476 0.32082 0.0657 
0.18304 -0.26008 -0.0865 
-0.05467 -0.40186 -0.02871 
0.18219 -0.17627 -0.06247 
-0.11751 -0.22228 0.03904 
0.17322 0.33829 0.0182 
-0.16639 0.27902 -0.10054 
-0.10751 0.17059 0.13476 
0.14889 -0.21186 -0.1478 
0.16897 0.31207 -0.1641 
0.02391 -0.18826 0.0579 
0.10751 0.23068 0.13141 
0.13988 -0.27524 -0.10277 
-0.02391 -0.06633 0.11339 
-0.14533 -0.19282 0.04912 
-0.06455 0.41343 -0.06002 
0.15151 0.38212 0.01735 
0 -0.40674 -0.1032 
0 0.04879 0.13599 
0.04716 0.35547 0.06707 
0.05825 0.07722 0.13687 
0.16834 0.13054 0.03639 
0.10893 0.04879 0.13335 
-0.18409 -0.2419 -0.04484 
0.12932 0.18721 0.11655 
0.16897 0.34867 -0.1342 
0.17201 0.31401 -0.08975 
0.15652 0.38457 -0.10081 
0.14402 -0.2556 -0.16805 
-0.14385 -0.23234 -0.07491 
-0.14197 -0.31927 -0.08521 
-0.18392 -0.28452 -0.10013 
0.18338 -0.29526 -0.09279 
-0.06258 -0.06567 0.11302 
0.14402 -0.23228 -0.16243 
0.02391 0.105 0.13793 
0.12592 -0.16381 0.06512 
-0.14063 0.23166 -0.10875 
0.12017 0.41143 -0.07189 
0.13026 -0.1386 0.07744 
-0.1519 -0.31516 0.01449 
-0.16831 0.03417 0.03388 
0.16463 -0.27497 -0.08133 
-0.2035 -0.09321 0.05063 
-0.09128 -0.3901 -0.02253 
-0.16709 0.37942 -0.00961 
0.07599 -0.22062 0.04721 
-0.02391 0.00959 0.13194 
-0.17422 -0.32102 -0.09699 
0.07964 -0.29732 0.02181 
0.1026 -0.3809 -0.01015 
-0.11491 0.31416 0.0967 
0.18094 -0.12141 -0.11055 
-0.16897 -0.22518 -0.15866 
-0.13994 0.2617 -0.08065 
-0.18409 0.3348 -0.05835 
-0.10751 0.2503 0.12942 
-0.0945 0.28532 0.1271 
-0.16897 0.29512 -0.04013 
-0.1265 -0.40838 -0.0559 
0.13994 -0.28557 -0.07509 
0.05651 -0.22678 0.0342 
-0.12732 0.20785 0.12009 
0.03269 -0.41378 -0.09607 
0.14063 -0.28693 -0.15939 
0.20498 -0.09269 0.0485 
0.05476 -0.41995 -0.1032 
-0.16463 -0.23031 -0.10115 
-0.1435 0.28966 -0.06561 
-0.13971 -0.26824 0.0276 
0.13994 -0.23333 -0.13456 
0.16243 -0.15976 0.04135 
0.13982 0.36335 -0.06679 
0.16366 -0.3726 -0.13163 
-0.18392 -0.24969 -0.14388 
-0.15756 -0.34603 -0.00594 
0.14402 0.33931 -0.05934 
0.03136 -0.30216 0.02181 
-0.14402 0.30064 -0.16773 
-0.14197 -0.19626 -0.11583 
0.05949 0.28366 0.12956 
0 0.42101 -0.03519 
0 0.26816 0.13134 
0.05825 0.13964 0.13723 
0 0.00959 0.1323 
0.07625 0.39937 -0.00402 
-0.04108 0.25054 0.13259 
-0.12017 0.411 -0.08594 
-0.13982 0.33866 -0.03708 
-0.17422 0.23412 -0.12422 
-0.1045 0.0233 0.1315 
-0.16038 -0.17536 0.04654 
0.03136 -0.27499 0.02856 
-0.16897 -0.31455 -0.07294 
0.0711 0.23057 0.13359 
-0.18338 -0.2747 -0.14175 
0.0972 0.34466 -0.08725 
0.13994 0.25755 -0.08768 
-0.18017 0.20571 0.01428 
-0.13994 -0.22278 -0.12088 
0.09013 -0.39867 -0.07188 
-0.09791 -0.38996 -0.04625 
-0.18278 0.15607 -0.10453 
-0.17483 -0.18378 -0.12692 
-0.02391 -0.09424 0.10221 
0.09295 0.41689 -0.03492 
0.17422 -0.23643 -0.16282 
0.18265 0.23385 -0.02534 
0.14889 0.23178 -0.12077 
0 -0.16795 0.06862 
0.16537 -0.23204 -0.09399 
-0.17422 -0.24761 -0.16716 
-0.16096 -0.28161 -0.12214 
-0.11706 -0.32088 0.01419 
-0.10352 -0.40798 -0.10871 
-0.13994 -0.25232 -0.06218 
0.15763 0.29114 -0.04139 
-0.05422 -0.35256 0.00608 
0.16193 -0.28895 0.01493 
-0.17485 -0.21328 0.00975 
0.17422 -0.20022 -0.12706 
0.02391 0.17059 0.13687 
0.10739 -0.09119 0.10069 
-0.14197 0.35401 -0.12356 
0.09098 0.20027 0.13489 
-0.18029 0.17952 -0.08836 
-0.18219 -0.17627 -0.06247 
-0.18148 0.15433 0.00255 
0.16668 -0.23414 -0.04632 
0.13988 -0.18847 -0.07288 
-0.05477 -0.40569 -0.1032 
0.18168 0.18486 -0.09941 
-0.14889 0.33931 -0.05934 
-0.19347 -0.09672 0.02993 
0.04573 -0.40371 -0.07188 
-0.03136 -0.28414 0.02629 
-0.18102 -0.17159 -0.08512 
0.184 0.02074 -0.0011 
0.14233 -0.08631 0.08223 
0.13905 0.08683 0.09931 
-0.17539 -0.19031 0.01197 
0.17634 -0.25962 -0.16812 
-0.14402 0.35523 -0.08691 
-0.12896 -0.11301 0.08968 
-0.13988 -0.19427 -0.06062 
-0.18354 -0.01297 0.00236 
-0.10958 -0.40788 -0.07364 
0.1435 0.25564 -0.11181 
0.13982 0.286 -0.09108 
-0.15773 -0.28386 0.0236 
-0.16897 -0.19964 -0.07932 
-0.07478 0.36811 0.05181 
0.1303 -0.39748 -0.10405 
0.15488 -0.38585 -0.07222 
0.10409 0.39442 0.01153 
0.07597 -0.40467 -0.13163 
0.10207 -0.40361 -0.12107 
0.04992 -0.09317 0.10157 
-0.17049 -0.35776 -0.03041 
-0.1435 0.33161 -0.11127 
0.16897 -0.30772 -0.06302 
0.09146 0.07578 0.13587 
0.18467 0.27338 -0.06682 
-0.07892 -0.40033 -0.07226 
-0.04716 0.32521 0.09705 
-0.11722 -0.38006 -0.08808 
0.14197 -0.32033 -0.08905 
0.1476 0.25741 0.07535 
0.18409 0.33759 -0.06103 
-0.16897 -0.27419 -0.04202 
0.18185 0.20928 -0.08506 
0.11409 -0.41156 -0.0636 
0.18392 -0.21745 -0.09869 
0.18357 0.20031 0.01258 
-0.18384 -0.32048 -0.0541 
0.02699 -0.40677 -0.12107 
-0.0711 0.26861 0.13006 
-0.18314 -0.28606 -0.02233 
0.13258 -0.23566 0.03404 
0.13512 -0.29573 0.02094 
0.18409 0.27963 -0.1641 
0.05422 -0.25161 0.03333 
0 -0.06389 0.1146 
0.05825 0.10548 0.13758 
0.14889 -0.31926 -0.12044 
-0.12467 0.27326 -0.12187 
0.18252 0.2593 -0.03273 
0.16443 0.19818 0.0447 
0.10658 -0.27518 0.02668 
0.1775 0.15517 0.02148 
0.1713 -0.35851 -0.04051 
-0.01304 -0.21987 0.04419 
0.17938 0.22208 0.004 
0.12857 0.113 0.11711 
0.02203 0.41437 -0.02665 
-0.12945 0.113 0.11711 
0.1758 0.2833 0.02219 
-0.02122 0.40072 -0.00479 
-0.16506 0.18065 0.04379 
0.13003 0.37847 -0.09806 
-0.09034 0.41258 -0.03027 
-0.16537 -0.24176 -0.12694 
0.04337 -0.05063 0.11936 
0.16923 0.05576 0.03178 
0.13031 0.38822 0.02561 
-0.16306 0.31181 -0.08471 
0.13988 -0.25268 -0.08818 
-0.14197 -0.27407 -0.04252 
-0.14889 -0.2556 -0.16805 
0.18285 -0.31233 -0.04461 
0.09432 0.36299 0.05364 
0.13798 -0.11428 0.08774 
-0.13988 -0.257 -0.08725 
0.13982 0.30339 -0.02575 
0.18392 -0.23272 -0.07487 
-0.12188 -0.39317 -0.13163 
-0.18338 0.29904 -0.14446 
-0.10953 -0.24046 0.02658 
0.12467 0.27427 -0.12174 
-0.16623 0.20533 0.041 
-0.18152 0.25126 -0.01507 
-0.0711 0.17065 0.1365 
0.18392 -0.26276 -0.06276 
-0.13055 0.00409 0.11005 
-0.14297 -0.38991 -0.04125 
-0.16668 0.29657 -0.16682 
0 -0.11806 0.09246 
0.16411 -0.37518 -0.10405 
-0.02391 -0.14658 0.07864 
-0.13982 0.29763 -0.08932 
0.16639 0.29914 -0.12929 
0.13988 -0.33585 -0.10628 
-0.0679 0.30185 0.12412 
-0.09459 -0.41402 -0.05121 
0.13988 -0.18378 -0.12872 
-0.16218 -0.2805 -0.0845 
-0.13994 0.27779 -0.14042 
-0.14197 -0.28025 -0.16381 
-0.13988 -0.30118 -0.03787 
-0.10658 -0.27518 0.02668 
-0.14994 0.04899 0.07658 
0.14402 -0.2726 -0.04167 
0.15922 -0.20078 -0.0798 
0.11641 -0.21377 0.04493 
-0.18392 0.30322 -0.07978 
-0.0988 -0.03389 0.1227 
-0.09146 0.07578 0.13587 
-0.17819 -0.34447 -0.04996 
0.11722 -0.37953 -0.07732 
-0.11603 -0.39301 -0.02469 
-0.18173 0.04376 -0.0156 
-0.07625 0.39937 -0.00402 
-0.12904 0.22985 0.11305 
-0.1849 0.31312 -0.04856 
0.18173 0.04376 -0.0156 
-0.02391 -0.11749 0.09181 
-0.05422 -0.3284 0.01404 
-0.09202 -0.18698 0.05579 
0.05399 -0.40605 -0.12267 
-0.18261 -0.08288 -0.05257 
0.05422 -0.30774 0.01984 
-0.14197 -0.23249 -0.16196 
0.0664 -0.40993 -0.08049 
0.15652 0.39752 -0.07109 
0.05059 -0.41583 -0.0489 
0.05422 -0.35256 0.00608 
-0.07716 0.41626 -0.08594 
-0.16281 -0.23375 0.03439 
-0.18322 -0.33859 -0.07211 
-0.14004 0.40091 -0.09623 
0.14385 -0.22002 -0.11138 
0.17788 0.32048 -0.01002 
0.16738 0.16794 0.0387 
-0.1595 0.04122 0.05418 
0.02391 0.00959 0.13194 
0.02391 -0.14658 0.07864 
-0.17591 0.33579 -0.00196 
0.1758 0.25747 0.02127 
0.13055 0.00409 0.11005 
-0.09432 0.35142 0.06672 
-0.02041 0.37129 0.06055 
-0.17675 0.31011 0.0172 
0.17406 0.37752 -0.08441 
0.04456 0.30009 0.11859 
0.14421 0.40012 -0.02826 
0.09311 0.41618 -0.06125 
0.07964 -0.34985 0.00608 
0 0.37017 -0.10192 
-0.10093 0.21257 0.13327 
0 0.20121 0.13599 
0 -0.40677 -0.13163 
0.1775 -0.34377 -0.12107 
0.18338 0.31289 -0.13677 
-0.16913 0.07644 0.03305 
-0.05825 -0.03251 0.12402 
-0.15922 0.32356 -0.16066 
-0.13644 0.28396 0.09326 
0.09098 0.24937 0.13095 
0.17997 -0.19137 -0.00225 
0.0711 0.17065 0.1365 
0.16007 0.36028 0.03229 
0.09422 0.31003 0.10644 
0.17363 -0.15918 0.01825 
0.1495 -0.12274 0.06866 
0.16668 -0.28043 -0.1643 
-0.07212 -0.11531 0.09101 
-0.13994 0.31658 -0.04987 
0.18338 -0.25905 -0.1456 
0.09449 0.28532 0.1271 
-0.1491 0.23564 0.07181 
-0.18173 0.04431 -0.07549 
-0.11795 0.04752 0.13141 
0 0.105 0.13828 
0.18173 0.04431 -0.07549 
-0.10338 -0.30155 0.01998 
0.14402 -0.30218 -0.05719 
-0.06345 -0.41666 -0.04859 
-0.0478 0.39357 0.02332 
-0.16027 0.07991 0.05514 
-0.16227 0.35359 0.03206 
0 -0.09546 0.10218 
0.16417 0.31849 -0.11517 
0.18046 -0.10127 0.04808 
0.04844 0.40409 -0.02284 
0.14984 0.08337 0.07722 
0 0.23068 0.13441 
-0.05825 0.23116 0.1337 
0.14893 -0.38932 -0.04441 
0.11653 0.19994 0.13159 
0.02199 0.30148 0.12323 
-0.16417 -0.26072 0.02109 
-0.07251 0.0485 0.13471 
-0.15922 0.35633 -0.10439 
-0.17081 -0.14311 -0.12872 
-0.04108 0.10524 0.13775 
0.02391 -0.06633 0.11339 
0.07973 -0.40389 -0.10141 
-0.08751 -0.09193 0.10105 
-0.0711 0.20128 0.13547 
0.06258 -0.06567 0.11302 
-0.1435 -0.27491 -0.06898 
-0.02391 -0.033 0.12437 
0.18102 -0.17159 -0.08512 
0.13982 0.29422 -0.11959 
0.17838 -0.2902 -0.0121 
-0.05422 -0.37497 -0.00287 
0.16697 0.09002 0.03907 
-0.15362 -0.15727 0.0601 
0 -0.03631 0.12375 
0.1045 0.0233 0.1315 
-0.06146 -0.14428 0.07851 
0.01305 -0.3308 0.01404 
0.13233 -0.18577 0.0542 
-0.15652 0.39752 -0.07109 
-0.17502 -0.24518 0.0066 
0.13994 0.29454 -0.06454 
-0.17422 0.34301 -0.14478 
-0.13258 -0.23883 0.03158 
0.14402 0.24824 -0.1493 
0.18261 0.04232 -0.04751 
-0.02358 0.38888 0.03137 
-0.18392 0.27437 -0.14011 
-0.11929 -0.09053 0.10024 
0.16463 -0.26274 -0.132 
-0.0711 0.13921 0.13706 
-0.18079 0.2578 -0.08779 
0 -0.41219 -0.07732 
-0.08096 -0.04992 0.11865 
-0.16835 0.13054 0.03639 
0.02391 0.13915 0.13758 
-0.04108 0.04903 0.13546 
-0.06844 -0.16632 0.06741 
-0.14867 -0.10616 0.06943 
-0.10751 0.13915 0.13529 
-0.1842 0.04232 -0.04875 
0.07964 -0.24531 0.02582 
0.05422 -0.37497 -0.00287 
0.13988 -0.24442 -0.11375 
0.11653 0.13788 0.13335 
0.16668 -0.2138 -0.06021 
-0.13916 0.05676 0.09899 
-0.10603 -0.16473 0.066 
0 0.17059 0.13723 
0.07688 -0.01142 0.12808 
-0.06762 0.41877 -0.03771 
0.11308 0.29503 0.1175 
0.05422 -0.28293 0.02628 
0.05825 0.01007 0.13159 
0.12576 0.39315 0.00199 
0.16905 -0.18873 0.02553 
0.16668 0.26367 -0.04892 
0.17081 -0.14311 -0.12872 
-0.17935 0.36502 -0.05444 
0.04108 -0.01145 0.12833 
-0.12837 0.03066 0.1182 
0.02391 0.26816 0.13098 
0.09905 -0.14146 0.07798 
-0.02391 0.23068 0.13406 
0.12837 0.03066 0.1182 
-0.16884 -0.04957 0.02874 
-0.04337 -0.05063 0.11936 
0.14385 0.33071 -0.0912 
0.1819 -0.34291 -0.09468 
0.1435 0.33042 -0.11598 
0.14994 0.04899 0.07658 
0.01305 -0.35581 0.00608 
-0.1758 0.2833 0.02219 
0.17675 0.31011 0.0172 
0.13044 -0.31871 0.0143 
-0.04108 0.20146 0.13546 
-0.13512 -0.29573 0.02094 
-0.07964 -0.27139 0.02856 
-0.16897 -0.22306 -0.05091 
0.0814 -0.39692 -0.01788 
-0.02391 0.07673 0.13723 
-0.1849 -0.31551 -0.11943 
-0.14272 -0.39412 -0.07222 
0.16353 0.31384 0.04155 
0.13982 0.32804 -0.03048 
-0.07598 -0.405 -0.12602 
-0.09458 -0.34774 0.00608 
0.00038 0.28309 0.16812 
-0.16668 0.23088 -0.10092 
0.06808 0.41147 -0.0402 
0.07964 -0.27139 0.02856 
0.10953 -0.24336 0.03333 
-0.04992 -0.09317 0.10157 
-0.12978 -0.37093 -0.00876 
0.11941 -0.06355 0.11222 
-0.02282 -0.39291 -0.02253 
-0.13239 -0.02273 0.10439 
-0.17059 -0.13314 0.02362 
-0.01305 -0.3308 0.01404 
-0.05825 0.01007 0.13159 
-0.16463 -0.24692 -0.07835 
0 0.41393 -0.06512 
0.04716 0.32521 0.09705 
-0.18129 0.33528 -0.02612 
0 0.13915 0.13793 
-0.1793 0.21303 -0.11472 
0 0.07673 0.13758 
-0.14028 0.40615 -0.05098 
-0.04716 0.37381 0.04642 
-0.17485 -0.28275 0.0014 
-0.12427 0.33091 0.07859 
0.13417 -0.36725 -0.03338 
0.02391 -0.09424 0.10221 
0.02391 0.07673 0.13723 
-0.13601 -0.04969 0.09606 
-0.027 -0.40677 -0.13163 
0.16884 -0.04957 0.02874 
0.14889 0.35587 -0.1118 
-0.05059 -0.41583 -0.07068 
0.1775 0.10256 0.0186 
-0.14528 0.36772 0.04381 
-0.09311 0.41618 -0.06125 
-0.1642 -0.20684 0.03879 
-0.17264 0.38037 -0.0845 
0.02105 0.39938 -0.00897 
-0.09905 -0.14146 0.07798 
0.10338 -0.30155 0.01998 
0.02391 0.23068 0.13406 
0.17938 0.04866 -0.09921 
0.02391 -0.11749 0.09181 
-0.13988 -0.24148 -0.10549 
