ply
format ascii 1.0
comment VCGLIB generated
element vertex 623
property float x
property float y
property float z
element face 0
property list uchar int vertex_indices
end_header
0.13699 0.36131 -0.05988 
-0.04319 -0.09613 -0.0554 
-0.14403 -0.22387 -0.12189 
-0.1282 0.20923 -0.03676 
0.0716 -0.41201 -0.04837 
-0.09138 -0.11216 -0.04018 
0.14264 0.26078 -0.15238 
0.1505 -0.33819 -0.04336 
-0.04461 0.43388 -0.02698 
0.05019 -0.14606 0.02805 
0.02178 -0.12812 -0.02098 
0.15864 -0.24756 -0.11618 
0.13308 0.05734 0.0519 
0.13817 0.38937 0.04986 
0.12316 0.29584 -0.00156 
0.12138 -0.34887 -0.05712 
0.1586 0.31823 -0.05435 
0.1567 -0.22379 -0.0518 
-0.14403 -0.28379 -0.15228 
-0.15966 -0.31587 -0.11618 
-0.1223 -0.14439 0.08937 
-0.12535 0.0419 0.02535 
-0.10429 -0.26127 -0.00236 
0.10639 -0.40934 -0.03531 
0.05128 -0.11452 0.07101 
0.09838 0.17852 -0.07456 
0.15681 -0.18051 -0.04672 
-0.12178 0.33244 -0.05337 
-0.10798 0.26102 -0.14104 
-0.10633 -0.32363 -0.12222 
0.1021 -0.10428 -0.02311 
-0.1053 0.30542 -0.00349 
-0.0071 -0.08123 0.13553 
0.12195 -0.06598 0.12374 
0.15208 0.32424 0.03059 
0.05603 -0.00537 0.00509 
-0.13898 0.00147 -0.0024 
0.15258 0.26359 0.04834 
0.03597 -0.10212 0.03722 
-0.04901 0.04511 0.11942 
-0.033 -0.13086 -0.00512 
-0.14389 0.04061 -0.02445 
-0.13356 -0.09293 -0.02259 
-0.13458 -0.13745 0.01067 
-0.05742 0.01604 0.03292 
0.14443 -0.04743 0.05503 
-0.15741 0.27642 -0.03627 
0.15664 0.29269 -0.10268 
0.1582 0.29312 -0.03537 
-0.02553 0.39198 -0.07186 
0.02188 -0.21179 0.04179 
-0.1544 0.21951 -0.09714 
0.13107 -0.06715 0.0067 
-0.01492 -0.32878 0.05088 
0.13428 0.33319 -0.1067 
-0.02682 -0.04403 -0.03758 
0.16072 -0.25471 0.00791 
0.1567 0.26064 -0.07853 
0.13461 -0.1882 0.06302 
-0.02609 -0.32949 0.02273 
0.07284 0.03256 0.00987 
0.0382 -0.3206 0.01336 
0.08074 -0.13529 0.00813 
0.13647 0.03142 -0.02761 
-0.14792 0.20566 0.06379 
0.15631 0.19483 0.02067 
-0.15176 0.36157 -0.00122 
-0.1584 -0.23171 -0.08095 
-0.02149 0.42405 0.02648 
0.00299 -0.34364 -0.0073 
0.14805 -0.36007 -0.08116 
-0.14926 -0.24515 -0.0549 
0.06008 0.05259 0.1509 
-0.01008 -0.16689 0.08971 
0.14609 0.03281 0.01559 
-0.10757 0.01654 0.03713 
-0.13748 -0.35818 0.02598 
0.08936 0.0228 0.08145 
0.0992 0.06365 0.14116 
-0.12278 0.28554 -0.03199 
-0.10571 0.25563 -0.01919 
0.15172 0.35916 -0.02738 
0.00688 -0.19939 0.07652 
0.11493 -0.34527 0.02698 
-0.16004 -0.18473 -0.012 
0.13603 -0.07693 0.04004 
0.13972 -0.365 0.01789 
0.05658 -0.09712 0.1262 
0.10494 0.31823 -0.05435 
-0.12429 -0.03476 -0.07082 
0.11551 -0.37467 -0.00502 
0.15862 0.22144 -0.06206 
0.01837 -0.07065 -0.07082 
0.02968 0.42405 0.02102 
0.159 -0.27605 -0.0339 
0.16072 -0.1888 -0.07634 
-0.15869 0.21589 -0.05615 
-0.03209 -0.41489 -0.08485 
0.10613 0.04394 0.0463 
0.09497 -0.13605 0.06856 
0.13914 -0.03094 0.01491 
-0.18461 -0.12762 0.05452 
0.15633 0.26961 -0.01668 
0.04466 -0.06164 -0.02719 
-0.00293 -0.13733 0.01034 
-0.02879 -0.1433 0.04035 
-0.157 -0.29691 -0.0888 
-0.1208 -0.11974 -0.03329 
-0.11419 0.3016 -0.13439 
-0.11481 -0.22147 -0.11155 
0.12476 -0.03751 -0.07082 
-0.13838 -0.21742 0.05316 
-0.02268 -0.21179 0.04179 
0.10641 -0.26321 0.02625 
0.0192 0.02434 -0.05119 
-0.13831 0.26875 -0.00972 
0.13815 -0.15606 0.05028 
0.14301 -0.239 -0.02248 
0.10679 0.01393 0.04943 
0.0532 -0.14506 0.07474 
0.13458 -0.13656 0.01073 
-0.11945 -0.24344 -0.14094 
-0.05691 -0.36646 -0.02168 
0.01712 0.00966 0.03854 
0.15678 -0.30422 -0.09787 
-0.15331 -0.08713 -0.06498 
0.15905 -0.33142 -0.0089 
0.08103 0.40331 -0.00589 
0.13515 -0.01731 0.04347 
0.10873 0.00713 -0.04315 
-0.14403 -0.28342 -0.00891 
0.13904 0.01316 0.03994 
0.05334 -0.30267 -0.00806 
0.1586 0.28681 -0.13542 
0.13171 -0.1747 -0.07006 
-0.1234 -0.23158 -0.07519 
-0.03433 -0.2509 0.02568 
-0.09502 0.01622 -0.0255 
-0.11601 -0.00471 -0.07081 
-0.10238 -0.2553 0.03293 
0.14389 0.03493 -0.0606 
-0.00583 -0.3974 -0.08433 
0.15562 0.15527 -0.08502 
-0.15688 0.31715 0.0182 
0.10735 -0.10454 0.02822 
-0.11839 0.00051 -0.03921 
0.10494 0.25707 -0.02294 
-0.14377 -0.14387 -0.05454 
-0.15152 -0.34609 -0.10543 
0.01907 -0.24316 0.06272 
0.12238 -0.30876 -0.0388 
0.1274 -0.06166 -0.02275 
0.12969 -0.21558 -0.06336 
0.01936 -0.30421 0.05308 
-0.03205 0.0098 0.14828 
-0.06263 -0.29789 0.01634 
0.13595 -0.2755 0.0458 
-0.04636 -0.07366 -0.02492 
0.00576 0.39194 -0.07186 
-0.09277 -0.00475 0.14614 
-0.14401 0.33294 -0.08062 
0.12931 0.2233 -0.13325 
-0.13988 -0.07151 0.07448 
0.13186 0.05352 0.09781 
0.12138 -0.32643 -0.13641 
0.0414 -0.21164 -0.04013 
-0.15818 -0.27907 -0.06152 
0.15664 0.23764 -0.1028 
-0.14926 -0.37673 -0.0167 
-0.02141 -0.24349 0.06156 
-0.10648 0.20498 -0.05969 
0.1041 0.33249 -0.02632 
0.03086 -0.42487 -0.03288 
0.13428 0.31148 -0.02488 
0.09813 -0.38074 -0.08832 
0.05152 0.01588 -0.02548 
0.09873 -0.20389 -0.0846 
0.00822 0.43516 -0.0199 
0.12122 0.02244 0.08335 
0.16047 0.19079 -0.02244 
0.13471 -0.39548 -0.04628 
-0.15719 0.2256 -0.0231 
-0.09942 -0.05213 0.13528 
-0.1383 -0.18183 0.01493 
0.01444 -0.35599 0.01806 
0.03192 -0.09712 -0.05735 
-0.14338 -0.3154 -0.06674 
-0.12781 -0.03663 0.00691 
0.03095 -0.11626 0.11812 
0.04705 -0.36026 0.00733 
0.07468 -0.00352 -0.02794 
-0.15748 0.2598 -0.07409 
-0.10535 0.04206 0.14533 
0.00946 -0.14231 0.10356 
-0.13904 0.01228 0.03988 
0.13014 0.2152 -0.07519 
-0.04584 -0.14445 -0.07091 
0.06888 -0.03122 0.14291 
-0.12216 -0.0861 -0.05053 
0.12339 0.03461 0.12349 
-0.16087 0.25309 0.00939 
-0.01307 -0.39153 0.03496 
0.13014 0.30232 -0.11618 
-0.16058 0.19073 -0.02244 
-0.10366 -0.30057 0.04998 
0.15559 0.34404 -0.00161 
-0.12273 -0.27165 -0.02856 
-0.1085 -0.34563 -0.1014 
0.10693 -0.00437 0.14619 
-0.15102 -0.35986 -0.07073 
-0.03247 0.05569 0.0485 
-0.1086 -0.27883 -0.14479 
0.00056 -0.10692 -0.01957 
-0.11883 0.22562 -0.13719 
0.14411 0.33392 0.06027 
0.00392 -0.31559 0.02385 
-0.132 -0.20109 -0.04106 
-0.10363 -0.37467 -0.00023 
-0.00562 0.4251 -0.04455 
0.15302 0.28743 -0.06536 
0.06713 -0.34578 0.0429 
0.02846 -0.03722 0.14605 
0.04155 0.0407 0.04127 
-0.1282 0.32239 -0.11431 
-0.03996 -0.36997 0.02118 
-0.0741 0.06162 0.09584 
-0.0458 0.04485 0.02305 
0.12138 -0.23564 -0.13642 
0.13323 -0.32379 -0.09843 
0.16072 0.21699 -0.00726 
-0.03916 -0.17713 -0.0123 
0.10435 0 0.0167 
-0.15492 -0.29527 0.02003 
-0.1349 0.40765 -0.04174 
0.05678 -0.25899 -0.0247 
0.03667 -0.18464 0.07902 
0.10553 0.21303 -0.05753 
0.15661 0.13177 0.01869 
-0.0838 -0.39856 0.01791 
0.01718 -0.07487 -0.02627 
-0.05663 -0.09712 0.1262 
0.07608 -0.06051 -0.02736 
0.07005 0.37369 -0.05011 
-0.05406 0.02541 -0.01516 
0.10555 0.29385 -0.13232 
-0.00846 -0.34618 -0.03541 
0.09685 -0.39381 0.01562 
-0.07419 0.40996 0.0486 
-0.09371 0.0568 0.04876 
0.02111 -0.03751 -0.07082 
0.15691 -0.28085 -0.07642 
0.10578 0.29654 -0.02647 
0.03434 -0.27177 0.02728 
0.13497 -0.09299 -0.04978 
-0.1571 0.30514 -0.02727 
0.14189 0.39282 -0.03618 
0.15269 -0.12929 0.07302 
0.121 0.23214 -0.0174 
0.0074 -0.408 0.014 
0.10758 -0.26422 -0.01882 
-0.12482 -0.06529 -0.01447 
0.06731 -0.39439 0.02901 
-0.12569 0.04527 0.12349 
0.15633 0.20401 -0.09713 
-0.15436 0.13371 0.03898 
-0.12021 0.02527 0.06638 
-0.13834 -0.21203 -0.09484 
-0.13362 0.27825 -0.12122 
-0.1509 0.23341 -0.13773 
-0.03483 -0.33966 -0.01825 
-0.07019 0.37369 -0.05011 
-0.15377 0.00037 -0.04526 
-0.13181 0.40681 0.0552 
0.0528 -0.23459 0.06165 
-0.15272 0.26359 0.04834 
0.09271 -0.20058 0.05707 
-0.12328 -0.3499 -0.06289 
-0.13568 -0.24334 -0.02025 
0.07286 -0.09974 -0.0468 
-0.13693 -0.12979 0.06466 
-0.15829 0.06641 0.00605 
-0.04302 -0.01858 -0.02666 
-0.14926 -0.26792 -0.12497 
0.11895 0.39973 -0.00808 
-0.09414 -0.17766 0.06192 
-0.14216 0.40099 -0.00042 
-0.05578 -0.23788 -0.02067 
0.13898 0.00235 -0.00234 
0.09111 0.0322 0.114 
0.0407 0.05029 0.08192 
0.10234 0.416 0.02026 
0.07151 -0.09092 0.00674 
0.16072 0.07616 -0.07326 
-0.10425 0.33192 -0.0248 
0.02074 -0.14358 0.04079 
-0.06584 -0.21399 0.0242 
0.17266 -0.1214 0.04979 
0.0929 -0.16225 0.086 
-0.16087 0.14397 -0.07393 
0.00012 -0.28545 0.0236 
-0.10633 -0.23346 -0.04872 
-0.07751 -0.42408 -0.03737 
0.09889 -0.2474 0.05842 
-0.12893 -0.0873 0.00856 
0.15058 -0.34397 -0.11273 
0.15864 -0.32976 -0.07407 
0.07099 -0.09964 0.03654 
0.10091 0.37369 -0.04475 
-0.14275 0.24911 -0.04291 
0.07637 -0.40863 -0.01116 
-0.12024 -0.32099 -0.00128 
0.02817 -0.33962 -0.02443 
0.02786 0.05324 0.15263 
-0.00617 -0.41757 -0.01354 
-0.07435 -0.39075 -0.08436 
0.13196 -0.22454 0.02555 
-0.08612 -0.24779 0.05734 
0.14264 0.20591 -0.04141 
-0.0478 -0.41055 -0.00736 
-0.09986 -0.2291 0.00719 
-0.1086 -0.3324 -0.04053 
0.11843 -0.35185 -0.09206 
-0.09151 -0.06516 -0.02715 
-0.02451 -0.03476 -0.07082 
-0.09914 -0.15166 -0.00439 
-0.02018 0.02748 0.03206 
-0.01692 -0.2812 0.05815 
0.1345 -0.12501 -0.01893 
-0.13584 0.02492 0.09814 
-0.13904 -0.06413 0.03529 
-0.07613 -0.03002 -0.02863 
-0.04477 -0.18301 0.06473 
-0.00421 -0.151 0.05723 
-0.15741 0.29839 -0.07791 
-0.02476 0.03584 0.07542 
0.15897 -0.2233 -0.09007 
0.13988 -0.07063 0.07454 
-0.09888 -0.20543 -0.0585 
-0.14756 0.38311 -0.02719 
0.08048 -0.29985 0.05105 
0.11341 0.2 -0.09819 
-0.11099 -0.02929 -0.0224 
-0.08123 0.40412 -0.01533 
-0.14275 -0.27529 0.04226 
-0.05166 -0.33962 0.01054 
0.04431 -0.17713 -0.00676 
-0.15897 0.26385 -0.13207 
0.15982 -0.07774 -0.00857 
-0.13834 -0.32882 -0.02598 
0.02446 0.02251 0.08335 
0.04606 0.02211 0.10426 
-0.11518 -0.39817 -0.03535 
0.16022 -0.21027 -0.00346 
0.13051 -0.23262 -0.09412 
-0.05126 -0.40397 0.02614 
-0.06908 0.0258 0.14807 
-0.13714 0.36131 -0.05988 
-0.15781 -0.3369 -0.05016 
-0.13323 0.03632 -0.05616 
0.04446 0.43388 -0.02698 
0.15314 0.16841 -0.05454 
-0.06992 0.40023 -0.07318 
-0.06928 -0.41695 -0.06883 
-0.02591 -0.20184 -0.0412 
-0.15773 -0.26364 -0.03135 
0.15782 0.23866 -0.03601 
-0.06727 -0.34578 0.0429 
-0.15922 -0.32671 0.00039 
-0.15562 -0.01765 0.03232 
0.06443 -0.3061 0.02313 
-0.05597 -0.25959 7e-05 
-0.0426 -0.1098 -0.02598 
-0.12234 -0.32183 0.02943 
0.10056 -0.29541 0.02389 
-0.02572 -0.20514 0.07236 
0.07611 0.42121 -0.04397 
0.1259 -0.10504 0.11032 
0.01898 0.01988 -0.01954 
-0.15377 0.23144 0.03569 
0.10412 -0.20772 -0.03133 
-0.15884 0.33053 -0.00984 
0.12872 -0.01724 -0.04749 
0.0036 -0.01556 -0.02137 
-0.14378 0.38323 0.03231 
-0.10571 0.20804 -0.09193 
0.0938 -0.05537 0.13886 
-0.09926 -0.41248 -0.06133 
0.14428 0.26474 -0.04384 
-0.06892 -0.03122 0.14291 
-0.12582 0.38905 -0.06779 
0.1586 0.23931 -0.13276 
0.16072 0.25309 0.00939 
0.12969 -0.29983 -0.15024 
0.10272 -0.02607 -0.03162 
-0.15937 0.29628 -0.12616 
-0.0873 -0.36693 0.02457 
-0.05606 0.03743 0.08707 
0.11534 0.0316 0.00857 
0.11822 0.40894 -0.05002 
-0.06183 -0.13932 0.10259 
-0.07266 -0.20048 0.06737 
0.144 0.09612 -0.05156 
-0.03832 0.00251 -0.05433 
0.04386 -0.41112 -0.00929 
-0.01735 0.01617 -0.02187 
0.10865 0.05102 0.07792 
-0.11498 -0.15737 0.05438 
0.09368 0.02066 -0.01872 
-0.15719 0.32042 -0.10506 
0.1361 -0.16495 -0.00982 
-0.10772 -0.00553 0.0074 
-0.03101 -0.42487 -0.03288 
-0.04981 -0.19853 -0.07091 
0.15366 0.23149 0.03569 
0.10661 0.02601 0.14787 
0.01702 0.01028 0.14797 
-0.13429 -0.18903 0.06315 
0.10711 0.33142 -0.09389 
0.10983 0.42616 -0.0269 
0.1137 -0.29685 -0.01192 
0.01092 -0.0801 0.11119 
0.13375 -0.3204 0.03786 
0.02856 -0.14445 -0.07091 
-0.00232 -0.25155 0.02507 
-0.08313 0.03285 0.09921 
-0.10534 0.37369 -0.04976 
0.06961 -0.23248 0.03066 
-0.02801 0.05324 0.15263 
0.1174 -0.03038 0.1351 
-0.1311 -0.10164 0.10466 
-0.04381 -0.16633 -0.04608 
-0.10573 0.41026 -0.04982 
0.07585 -0.15186 0.05103 
0.13239 0.40903 0.02024 
0.15989 0.06582 -0.00337 
-0.15472 0.03798 0.01559 
-0.15885 -0.22571 0.00909 
0.03275 -0.23338 0.02361 
0.07723 -0.19193 -0.03785 
-0.14861 -0.1622 0.05202 
-0.11999 -0.24772 0.05602 
-0.02243 -0.21345 -0.00128 
-0.0579 -0.00806 -0.00272 
-0.14443 -0.03316 0.05616 
0.15224 0.12287 -0.06271 
0.03029 -0.00072 -0.07081 
0.03212 -0.41489 -0.08174 
-0.16087 0.11214 -0.06891 
0.03891 0.40066 -0.07318 
0.07285 0.04353 0.04715 
-0.11929 0.05683 0.07299 
-0.03343 0.06443 0.07958 
0.15473 -0.18605 0.02545 
-0.12472 0.42447 -0.00753 
-0.12178 0.23071 -0.01364 
0.08673 -0.11199 0.11566 
-0.00594 -0.42531 -0.06969 
0.15897 -0.31801 -0.12607 
-0.02066 -0.08118 -0.03849 
-0.13841 0.29723 0.05255 
0.12381 -0.12151 -0.05383 
0.07283 0.01105 0.03723 
-0.16098 0.06583 -0.02419 
0.03694 -0.01073 -0.02625 
0.02196 -0.01934 0.00784 
0.10758 -0.26227 -0.13013 
0.07405 0.41886 0.03936 
-0.14341 0.19359 -0.08584 
-0.1224 -0.05505 -0.04523 
0.06667 -0.19457 0.07158 
-0.13515 -0.10484 0.03322 
-0.10019 0.06004 0.11082 
0.03852 -0.21953 -0.00668 
-0.16087 -0.20707 -0.04989 
0.12238 -0.24475 -0.04689 
-0.13644 0.37462 0.07117 
-0.11668 0.03089 -0.00791 
0.13014 0.31603 -0.08153 
0.10362 -0.32194 0.04266 
0.10494 0.26276 -0.13914 
-0.069 -0.15122 0.0562 
0.05017 -0.36841 -0.0217 
-0.05276 -0.25465 0.05781 
-0.10845 -0.09229 0.1229 
-0.0999 -0.13409 0.02056 
0.03852 -0.40715 0.02127 
-0.0496 0.41793 0.01469 
-0.16057 0.12876 -0.00239 
0.07286 0.05147 0.07822 
-0.07925 0.18172 -0.06336 
-0.09853 -0.17757 -0.07941 
-0.10249 0.416 0.02026 
-0.15033 0.07504 0.05748 
-0.03395 -0.05187 0.14166 
0.1584 -0.28308 -0.12822 
-0.13892 -0.38134 -0.08893 
0.13076 -0.14291 0.08875 
-0.14275 0.24911 -0.11147 
-0.06402 -0.2861 -0.01896 
0.154 -0.30593 -0.04034 
0.09864 -0.17713 -0.00614 
0.07872 -0.40706 -0.08174 
0.068 -0.26917 0.02427 
0.12745 -0.07065 -0.07082 
0.08827 -0.12701 0.03615 
-0.13425 -0.29606 -0.12497 
-0.14275 -0.38887 -0.04625 
-0.14551 0.04502 0.06076 
0.1586 0.32376 -0.09007 
-0.10429 -0.21503 -0.02083 
0.06977 0.40023 -0.07318 
-0.14403 -0.32068 -0.14153 
0.15701 -0.25289 -0.06254 
-0.15577 -0.18716 -0.08032 
0.05346 -0.24641 0.00249 
0.02721 -0.03851 -0.01938 
0.1525 0.13389 0.05126 
0.14781 0.20571 0.06379 
0.15562 -0.07567 -0.08652 
0.0447 0.40513 -0.01487 
0.16072 -0.29483 0.00734 
-0.00198 -0.03819 0.13105 
-0.03433 -0.29641 0.02646 
-0.15827 0.20375 0.00823 
-0.00334 -0.38561 -0.00501 
0.1307 -0.1905 -0.02925 
-0.11744 -0.17713 -0.00654 
0.0084 0.40386 -0.00586 
-0.10066 -0.07923 -0.07791 
0.16072 0.29362 0.00848 
-0.15577 0.02112 -0.07812 
0.15304 0.00037 -0.04526 
0.10467 -0.09214 -0.05544 
0.14731 0.38367 0.01036 
-0.02093 -0.07463 -0.07082 
0.0587 -0.1762 -0.07084 
-0.02813 -0.02189 0.1338 
0.10505 -0.3241 0.00767 
0.04334 -0.10423 -0.0231 
0.09889 -0.35464 -0.03669 
-0.1581 0.27476 -0.10235 
-0.16087 0.17333 -0.06257 
0.03181 -0.19853 -0.07091 
0.13732 -0.26786 -0.01039 
-0.123 -0.2263 0.02628 
-0.09982 0.34629 -0.07444 
0.13753 -0.11847 0.03878 
-0.10459 -0.39802 -0.08894 
-0.07235 0.41904 -0.0462 
-0.03444 -0.3834 -0.0071 
-0.16087 -0.25635 0.00181 
-0.10798 0.31675 -0.08542 
-0.00267 -0.43485 -0.04127 
-0.14426 0.33392 0.06027 
0.10026 0.36217 -0.07391 
0.03695 -0.16633 -0.04608 
-0.1234 -0.30335 -0.03574 
-0.07426 0.03522 0.0048 
-0.09355 -0.40239 -0.01084 
-0.02637 -0.07417 0.11296 
0.05425 0.05009 0.11179 
0.10749 -0.2218 -0.1114 
-0.10741 -0.21425 0.0586 
0.09838 0.07617 -0.07514 
0.14203 -0.25622 -0.14599 
0.13177 -0.15661 -0.04547 
0.15522 0.07064 0.03647 
-0.08062 -0.32352 0.00887 
0.13763 0.29867 0.0488 
-0.00036 0.06443 0.07958 
0.16072 0.12729 -0.02307 
-0.07431 -0.00471 -0.07081 
0.11533 -0.14199 0.03652 
0.13285 0.27414 -0.12639 
-0.15861 -0.29572 -0.03406 
-0.15235 0.06676 -0.06336 
-0.11406 -0.28532 0.02263 
0.07587 -0.21739 0.00503 
0.07436 -0.33959 0.0007 
-0.13398 -0.16198 -0.02905 
-0.00824 -0.11723 0.11812 
0.13308 0.06443 -0.05633 
0.10412 -0.23588 -0.00619 
0.10299 0.39741 -0.07318 
-0.04484 0.40513 -0.01487 
0.05931 -0.00115 -0.05409 
0.10593 -0.33161 -0.11034 
0.15562 0.02081 -0.08514 
-0.00036 0.06443 0.14209 
0.02747 0.41622 -0.05005 
0.14117 -0.38928 -0.01648 
-0.16065 -0.07771 -0.02503 
0.14949 -0.24913 0.03645 
-0.07517 -0.26661 0.02497 
-0.00322 -0.17713 -0.01225 
-0.01891 -0.01334 0.00927 
0.18187 -0.12044 0.07891 
-0.11105 -0.34897 0.01344 
-0.08017 0.05991 -0.06336 
0.15642 0.31538 -0.12533 
-0.07732 -0.17713 -0.00812 
-0.13362 0.30407 -0.05598 
0.12102 0.40913 0.07207 
0.13112 -0.38677 -0.08898 
0.07532 -0.37043 -0.00128 
0.03384 0.03123 0.00856 
-0.13206 -0.05348 0.09935 
-0.15719 0.32631 -0.05218 
-0.16672 -0.13782 0.07683 
0.12757 -0.21786 0.05905 
0.02913 -0.07629 0.137 
0.08623 -0.36865 0.0337 
-0.15799 -0.26616 -0.09463 
-0.13177 -0.17465 -0.0672 
-0.16087 0.29095 0.00258 
-0.12747 0.20395 -0.11537 
-0.15614 0.12518 -0.0421 
0.00857 0.41544 0.0408 
0.09838 0.02118 -0.07559 
-0.02372 -0.41154 0.01398 
-0.07131 -0.0698 0.13635 
-0.07284 -0.0988 -0.07081 
-0.08677 -0.11199 0.11566 
